ply
format ascii 1.0
element vertex 1255
property float x
property float y
property float z
property uchar red
property uchar green
property uchar blue
end_header
-0.0380702 -0.895309 5.57151 172 172 132
0.574802 -0.938726 6.47736 134 130 92
-0.314631 -1.08416 5.82001 152 152 116
-0.011934 -0.898514 5.63819 164 167 127
0.485825 -0.869476 6.17754 124 120 88
-0.0358235 -0.90654 5.64703 152 159 124
0.155925 -0.981345 6.10167 168 175 128
-0.41597 -1.21215 6.12465 168 162 142
-0.291952 -1.08928 5.90569 162 158 126
0.00107483 -0.875679 5.58787 149 156 114
-0.333646 -1.1003 5.8751 188 184 144
-0.361619 -1.12331 5.93819 178 174 132
0.521007 -0.922921 6.4174 136 133 100
-0.37399 -1.15625 6.04943 133 134 114
-0.0913551 -0.985401 5.87475 136 142 107
-0.284756 -1.07937 5.90964 165 162 134
-0.459456 -1.21364 6.18321 200 194 158
-0.315497 -1.09748 5.97371 156 152 134
0.4413 -0.863751 6.17461 133 130 91
-0.341711 -1.145 6.08043 157 158 118
0.436853 -0.863533 6.17341 210 210 170
0.440674 -0.860484 6.17893 98 99 64
-0.311751 -1.10476 6.0216 160 160 118
0.0138849 -0.851962 5.58353 167 174 130
0.389898 -0.801038 5.91769 152 152 112
-0.358339 -1.12029 6.0026 132 126 100
-0.300297 -1.0508 5.84558 166 162 124
-0.297815 -1.04936 5.84906 124 120 85
-0.180876 -0.941895 5.63895 125 125 103
0.120469 -0.909783 5.95947 216 220 178
-0.281656 -1.06924 5.96627 147 146 116
-0.40294 -1.15343 6.11861 140 136 98
0.394587 -0.849417 6.14966 148 147 110
-0.343867 -1.08878 5.98381 148 146 110
-0.0107032 -0.899007 5.77516 174 180 133
-0.437621 -1.21892 6.3588 115 116 96
0.00725569 -0.853527 5.6481 150 156 112
-0.398788 -1.13932 6.13257 116 116 83
0.0160478 -0.860679 5.70385 200 207 166
-0.2881 -1.05679 6.04671 172 170 136
0.359431 -0.843482 6.16039 141 142 98
-0.162243 -1.1188 6.52027 147 154 109
-0.0323735 -0.729593 5.17433 220 219 170
-0.0764157 -0.930575 5.93916 154 165 122
-0.38121 -1.12525 6.21919 112 110 89
-0.035415 -0.880064 5.76922 150 158 117
-0.293948 -1.06148 6.12413 141 142 110
0.333175 -0.832034 6.1514 152 155 123
-0.396348 -1.13231 6.26816 124 122 102
-0.280092 -1.04359 6.09722 144 144 113
0.0829693 -0.879458 5.98115 190 192 153
0.0421949 -0.774301 5.49781 138 141 96
0.32595 -0.851261 6.24397 154 154 120
-0.194475 -0.772832 5.13225 207 204 153
-0.186841 -0.76902 5.12644 211 208 156
-0.193235 -0.770637 5.12619 211 208 157
-0.213893 -0.788214 5.16807 212 210 156
0.0505346 -1.02434 6.54949 160 163 113
0.059584 -0.981017 6.41359 166 168 122
0.0467776 -1.01429 6.55443 160 164 114
-0.091208 -0.92627 6.03927 148 160 118
0.292829 -0.839444 6.22696 148 148 108
-0.258105 -1.00969 6.09918 159 160 127
0.28242 -0.816382 6.12526 164 164 129
-0.0911359 -0.931199 6.04895 144 155 114
-0.254198 -0.987555 6.07977 160 159 132
0.279998 -0.832714 6.22075 154 156 120
-0.238058 -0.947987 5.89232 140 138 113
-0.106807 -0.953283 6.14479 136 146 108
-0.0939936 -0.926274 6.10043 168 176 136
-0.390558 -1.10261 6.3415 126 125 100
0.070309 -0.946393 6.42009 196 200 158
-0.0442704 -0.863984 5.87016 152 158 119
-0.43301 -1.13225 6.45291 144 142 120
0.248262 -0.805322 6.10343 155 155 114
-0.246135 -0.966814 6.1087 144 142 114
-0.0564852 -0.881739 5.96493 134 142 101
-0.100388 -0.928728 6.17646 169 176 140
0.23005 -0.751793 5.87044 167 168 136
-0.00139713 -0.690619 5.18859 214 216 170
-0.061455 -0.879208 5.98831 161 166 134
-0.0997314 -0.924632 6.18533 158 160 125
-0.106719 -0.922415 6.21715 160 166 126
0.0367827 -0.960761 6.58307 180 185 143
0.224676 -0.844235 6.36506 144 146 111
-0.23106 -0.962062 6.13485 188 187 158
0.212275 -0.849011 6.39597 132 136 97
-0.0264562 -1.08735 7.16687 174 175 131
-0.538132 -1.19304 6.76813 212 212 177
-0.204612 -0.932388 6.06526 180 180 144
-0.295646 -1.21015 7.34 160 160 105
0.201545 -0.777284 6.04665 184 187 152
-0.226304 -0.938965 6.13374 152 152 123
-0.0911332 -1.07463 7.03121 175 174 124
-0.363156 -1.02867 6.30518 163 162 132
0.0157089 -0.766469 5.66468 158 156 102
-0.203906 -0.747097 5.15199 212 206 151
-0.0720601 -0.915132 6.27053 175 180 138
-0.141252 -0.710605 5.07643 208 202 147
-0.223507 -0.931249 6.14344 156 156 124
0.0239592 -0.925707 6.54051 180 182 142
0.065423 -0.844274 6.19019 170 178 138
-0.25011 -0.770461 5.2094 214 208 152
0.178369 -0.787409 6.12948 157 161 119
-0.340916 -1.0068 6.34103 126 124 103
-0.39057 -1.02767 6.40243 181 181 148
0.160085 -0.877701 6.63674 186 192 154
-0.324864 -0.985225 6.28366 132 128 108
-0.342177 -0.993683 6.3367 126 124 102
-0.211267 -0.916143 6.16546 154 156 120
-0.197866 -0.90155 6.12772 178 178 143
-0.376232 -1.03088 6.47275 148 146 123
-0.221467 -0.922537 6.22954 170 170 134
-0.396575 -1.0264 6.51184 178 174 152
-0.0517012 -0.900932 6.45918 194 195 153
-0.34575 -0.982072 6.32525 162 162 130
0.148088 -0.766837 6.09434 132 136 98
-0.22832 -0.924488 6.27801 156 156 123
0.139532 -0.784526 6.19104 154 160 120
-0.0299686 -0.858976 6.2875 183 182 142
0.0845029 -0.749191 5.89003 122 130 92
0.259751 -0.65238 5.67473 210 212 172
-0.0643406 -0.894278 6.48553 193 193 152
-0.180351 -0.874324 6.14284 174 176 136
-0.0489393 -0.837898 6.16441 128 133 89
-0.0788725 -0.879645 6.39116 174 180 135
-0.462657 -1.07731 6.80808 148 146 122
-0.11751 -0.8857 6.37381 159 156 104
0.26858 -0.658141 5.78613 90 81 34
0.261261 -0.677226 5.90031 148 150 102
-0.106173 -0.88273 6.42781 178 178 130
0.0473143 -1.16708 8.62604 134 136 110
0.288609 -0.6739 5.97948 172 170 128
-0.251609 -0.881537 6.0863 207 209 172
0.00183356 -0.831609 6.37286 146 149 112
0.09935 -0.769195 6.17946 216 223 184
0.115702 -0.729653 5.95719 149 155 115
0.0735487 -0.866091 6.76271 150 154 119
-0.429676 -1.03165 6.73357 142 142 118
-0.19575 -0.879137 6.26467 140 140 106
-0.243085 -0.904425 6.37747 122 123 94
-0.167908 -0.975759 6.95487 160 167 121
-0.0373471 -0.809163 6.16679 230 236 194
-0.157172 -0.840221 6.13905 150 152 113
-0.221493 -0.893956 6.32961 120 120 90
-0.388295 -0.980163 6.54982 168 168 140
-0.248871 -0.898247 6.35995 125 126 96
-0.242233 -0.900507 6.37713 144 143 114
0.0671609 -0.744573 5.99611 156 164 129
-0.166628 -0.847071 6.18753 131 133 95
0.261527 -0.655216 5.81789 145 141 103
-0.0586979 -0.81923 6.27028 130 137 83
-0.0547456 -0.818715 6.27628 200 200 152
0.265031 -0.667372 5.97907 154 150 123
-0.381915 -0.977491 6.62657 132 132 108
-0.304754 -1.09021 7.63118 175 176 130
-0.441542 -1.02919 6.85538 124 122 99
0.111051 -0.782393 6.46081 116 120 97
-0.505072 -1.06811 7.04712 144 142 116
0.0785538 -0.737946 6.08055 156 162 125
-0.127372 -1.22745 9.20091 112 114 76
0.0726293 -0.744735 6.11621 149 154 118
0.0788366 -0.719556 5.97634 178 182 146
-0.251042 -0.782345 5.59332 190 188 139
-0.325865 -0.831927 5.77615 174 172 126
-0.197544 -0.761373 5.56764 157 158 112
-0.450109 -1.0168 6.88645 166 165 140
-0.251197 -0.880892 6.41768 144 142 115
-0.187082 -1.11514 8.32199 167 178 147
0.0391929 -0.76769 6.27734 218 228 188
0.22065 -0.618328 5.57999 133 141 102
-0.307036 -1.06162 7.63358 156 158 108
-0.33985 -0.924377 6.48895 126 124 98
-0.125059 -0.801356 6.12007 134 138 98
-0.146935 -0.818214 6.23388 146 150 108
0.0457617 -0.742441 6.11997 188 200 168
-0.288111 -0.796515 5.64281 207 203 154
-0.21585 -0.76028 5.54924 112 110 78
-0.248558 -0.985157 7.31913 136 140 90
-0.063178 -0.848445 6.69408 154 154 132
-0.382969 -0.856129 5.89588 120 117 86
0.0447594 -0.736674 6.11381 156 164 134
0.218509 -0.626238 5.64528 218 225 190
-0.173763 -0.892449 6.84875 162 161 114
0.0463195 -1.16436 9.66165 152 154 142
-0.306863 -0.800407 5.68114 100 88 58
-0.19118 -0.75945 5.67422 138 139 97
0.0494068 -0.725598 6.06561 178 185 152
0.209251 -0.615465 5.60485 201 206 168
-0.331164 -0.908017 6.56526 126 126 102
-0.239705 -0.763425 5.56593 125 122 80
-0.298149 -0.797842 5.70028 144 142 100
-0.316312 -0.809789 5.74722 124 120 84
0.200271 -0.610187 5.55102 178 173 129
0.0195277 -0.764379 6.32355 94 103 78
0.252544 -0.62044 5.72657 206 201 165
-0.23028 -0.75048 5.49208 170 154 98
-0.28062 -0.780807 5.60543 160 150 100
-0.199244 -0.741844 5.53117 138 138 94
-0.209061 -0.735459 5.4404 170 148 94
-0.171456 -0.821609 6.37061 115 120 79
-0.202485 -0.865745 6.61523 219 226 186
-0.0747665 -0.752314 6.00933 231 232 196
-0.0714472 -0.75172 6.0138 122 124 77
0.244805 -0.605543 5.64743 209 199 166
-0.316919 -0.786988 5.62483 212 204 148
-0.0761349 -0.747565 6.00329 121 123 84
-0.195632 -0.850235 6.60806 172 174 131
-0.0531141 -0.730027 5.92807 114 116 67
-0.185669 -0.751887 5.73417 130 132 90
-0.216914 -0.841997 6.47374 107 110 76
-0.38609 -1.07085 8.19499 149 146 91
-0.275951 -1.12125 8.93454 126 132 97
0.252161 -0.615188 5.81878 194 180 144
-0.0375553 -0.677734 5.52121 173 178 144
-0.210859 -0.747812 5.65927 140 140 108
-0.280563 -0.865644 6.649 122 124 94
-0.14806 -0.892636 7.20039 130 134 106
0.18427 -0.696374 6.48165 102 98 62
-0.207719 -0.747174 5.70062 97 94 66
-0.153504 -0.799409 6.41545 105 106 55
-0.142335 -0.795207 6.43016 134 132 76
-0.41146 -1.08097 8.36717 152 149 96
-0.179085 -0.867797 7.01163 150 149 98
0.0149073 -0.708875 6.07086 104 110 76
0.186107 -0.61162 5.66895 108 102 68
-0.185108 -0.745699 5.79725 130 132 93
0.223709 -0.615369 5.8427 117 118 82
-0.00772575 -0.644 5.36965 226 232 190
-0.00997945 -0.646907 5.38816 153 157 120
-0.28556 -0.859153 6.67336 110 114 84
-0.141207 -0.767942 6.19314 109 112 76
-0.23897 -0.838493 6.66258 116 120 82
-0.134027 -0.764771 6.20241 109 112 72
0.17087 -0.612133 5.65513 163 158 122
0.231924 -0.606889 5.78682 170 158 126
0.246371 -0.62568 6.05858 140 121 88
-0.285451 -0.78589 5.90497 127 116 88
0.235529 -0.603455 5.84957 178 168 132
-0.302414 -0.791756 5.97899 94 86 61
-0.301269 -0.855874 6.77258 109 112 84
-0.209623 -0.811971 6.55323 120 121 80
-0.19271 -0.800648 6.49938 124 124 82
-0.226939 -0.740363 5.72028 216 218 173
-0.293141 -0.855322 6.77913 110 114 84
-0.566843 -1.22194 9.82256 150 152 108
-0.0362541 -0.659763 5.5016 149 151 116
-0.440278 -1.06547 8.59528 153 152 104
0.243492 -0.608766 5.91318 154 133 103
-0.178316 -0.732932 5.82762 127 130 90
-0.0275921 -0.648615 5.42671 154 156 116
-0.411862 -1.12642 9.52047 113 116 86
-0.226482 -0.932271 7.97726 115 118 88
0.245943 -0.60916 6.02556 162 132 102
-0.114732 -0.800315 6.89515 143 146 110
0.165783 -0.583261 5.45437 186 188 150
0.242704 -0.604242 5.94201 150 131 98
-0.113314 -0.646466 5.12221 202 197 134
0.000166852 -0.633521 5.40696 200 194 154
0.165415 -0.58893 5.51397 154 150 112
-0.073173 -0.695232 5.91037 116 120 85
-0.0909283 -0.673492 5.70283 184 174 134
0.130902 -0.596182 5.47428 178 164 134
-0.194514 -0.805091 6.88439 152 154 111
0.15888 -0.589015 5.56488 103 102 66
-0.254907 -0.756403 6.00143 95 96 74
0.000754813 -0.62888 5.42402 112 90 67
0.192323 -0.592472 5.76339 120 126 93
0.269554 -0.593302 6.08697 176 142 118
-0.351085 -0.79385 6.12645 104 81 56
-0.181375 -0.750651 6.2809 134 138 115
-0.249573 -0.743652 5.91671 168 162 138
-0.196608 -0.869766 7.88514 124 126 112
-0.0159436 -0.635377 5.49275 122 101 77
0.261695 -0.577726 5.89404 215 206 176
-0.272461 -0.75458 5.899 164 132 107
-0.0777265 -0.671588 5.78891 70 64 43
-0.622245 -0.920167 6.80881 164 126 96
-0.209535 -0.719242 5.8197 224 224 189
-0.0299744 -0.639978 5.54931 86 60 40
-0.18039 -0.741419 6.34038 128 133 109
0.140151 -0.584118 5.54787 211 212 174
-0.133399 -0.684025 5.75229 99 100 78
-0.338276 -0.770903 6.01785 220 198 156
-0.0796706 -0.668197 5.80923 56 47 26
0.133041 -0.586526 5.59298 146 127 92
0.139714 -0.580836 5.53764 135 124 88
0.131975 -0.591448 5.6833 110 108 73
-0.28228 -0.75432 6.15506 92 94 71
0.175162 -0.586353 5.81922 150 155 121
-0.0931381 -0.652775 5.49972 221 226 184
-0.177814 -0.696413 5.78385 132 124 92
-0.302041 -0.807589 6.94054 150 154 130
-0.297629 -0.80424 6.94983 128 132 106
-0.234947 -0.728272 6.01133 97 98 75
0.143592 -0.588006 5.75725 75 74 46
0.261702 -0.579343 6.25087 212 195 171
-0.525166 -0.843374 6.51181 178 132 102
-0.127598 -0.666163 5.64731 156 146 120
0.114698 -0.589566 5.69078 68 42 18
0.12789 -0.585822 5.62016 88 78 49
0.259637 -0.57507 6.25051 202 181 156
-0.11503 -0.654868 5.56641 172 154 115
-0.143297 -0.766893 7.42799 128 128 118
-0.420108 -0.792715 6.28955 187 152 126
-0.133501 -0.661165 5.58894 120 84 57
-0.421196 -0.786917 6.24431 182 135 106
-0.284076 -0.737244 5.91511 204 160 137
-0.186113 -0.682605 5.68833 220 198 162
-0.127715 -0.661302 5.6407 146 128 98
0.233282 -0.574726 6.13723 180 154 124
-0.111527 -0.661083 5.8218 72 46 28
-0.133866 -0.65936 5.5904 187 164 132
-0.130121 -0.65674 5.58598 158 122 89
-0.186169 -0.687213 5.85278 182 174 156
0.158627 -0.575172 5.78279 99 93 60
-0.036772 -0.629094 5.65223 77 64 42
0.107015 -0.588782 5.73198 93 74 50
0.240536 -0.563653 6.06511 236 204 196
0.161514 -0.570653 5.716 155 146 108
-0.16177 -0.665955 5.65482 153 128 92
-0.215151 -0.701204 5.98907 96 95 74
-0.033753 -0.624134 5.63387 74 56 38
0.102709 -0.586446 5.74386 100 93 66
0.158562 -0.559487 5.71264 148 127 90
-0.168818 -0.666015 5.69093 154 120 84
-0.137195 -0.652959 5.61091 168 127 96
-0.0902512 -0.633903 5.52762 124 106 78
0.0863418 -0.593582 5.8654 88 72 50
0.14692 -0.571747 5.76539 72 64 40
-0.217466 -0.684868 5.78085 136 97 67
0.177691 -0.551994 5.56413 157 150 116
-0.183665 -0.676124 5.89072 84 77 57
0.178932 -0.552634 5.6175 182 173 138
-0.124781 -0.645359 5.57439 136 96 66
0.149152 -0.565112 5.74628 80 65 38
0.182519 -0.548405 5.55598 209 206 170
0.233937 -0.558549 6.08889 176 138 120
-0.133756 -0.660603 5.95929 96 80 62
-0.135293 -0.647722 5.64243 142 124 93
0.227607 -0.565474 6.4596 180 136 116
-0.331933 -0.725075 6.0929 112 80 52
-0.125958 -0.643258 5.57756 142 108 82
0.230208 -0.553988 6.22289 154 108 90
-0.0129504 -0.602757 5.5127 100 82 63
0.0887325 -0.577948 5.70785 76 68 46
-0.129654 -0.639367 5.58816 192 172 154
-0.0628653 -0.6311 5.95085 122 121 96
0.101275 -0.57133 5.57368 96 84 64
0.165708 -0.546111 5.6369 200 182 168
0.169483 -0.547901 5.6712 162 136 116
0.172225 -0.544589 5.63886 128 98 74
0.184793 -0.538784 5.65547 198 190 155
0.127234 -0.558861 5.77454 87 76 56
-0.0977278 -0.634972 6.0385 131 132 110
0.156436 -0.556972 5.80186 127 102 75
0.173785 -0.539586 5.63537 102 70 36
-0.276986 -0.703071 6.67303 52 46 27
0.118832 -0.559672 5.85761 58 38 22
-0.167606 -0.657758 6.32169 136 138 118
-0.152616 -0.649121 6.20171 108 108 91
-0.180165 -0.661059 6.34529 126 128 110
0.167301 -0.544123 5.92307 142 112 82
-0.280358 -0.694725 6.6509 122 121 106
0.0711693 -0.566616 5.65996 80 72 50
0.0658683 -0.569707 5.72447 84 82 58
0.0763142 -0.569407 5.81883 84 85 58
0.0639436 -0.567944 5.68142 41 24 9
0.0669981 -0.569141 5.88017 70 72 46
0.190116 -0.541483 6.53384 192 179 155
0.171214 -0.536871 6.03202 169 138 102
0.179366 -0.533776 5.89745 174 148 116
0.193446 -0.531187 6.05191 167 146 122
-0.424016 -0.719932 6.9347 126 128 110
0.172799 -0.528504 5.74077 144 116 87
0.187038 -0.526184 5.88641 192 165 144
-0.207139 -0.64902 7.65006 68 63 42
0.0418951 -0.557062 6.1097 73 69 50
0.0998549 -0.542014 5.72289 42 28 14
0.188931 -0.518027 5.90208 138 93 70
-0.547972 -0.749878 7.87447 113 117 112
-0.571701 -0.759971 8.10039 128 130 123
-0.45027 -0.71987 7.59951 130 132 125
0.0699122 -0.548049 6.00705 71 62 44
0.122828 -0.531196 5.72571 52 26 17
-0.479294 -0.72505 8.00156 130 133 114
0.0544313 -0.553733 5.92101 88 87 66
0.168769 -0.525377 6.0539 118 89 66
-0.950827 -0.87616 9.44971 127 132 123
0.163594 -0.516788 5.94526 158 138 121
0.166113 -0.517304 6.12398 234 221 210
0.157859 -0.515853 5.85225 120 91 70
0.116562 -0.523501 5.71273 52 28 18
0.170507 -0.511356 6.00979 98 74 54
0.0671101 -0.536929 6.09517 52 28 19
-1.00353 -0.872468 8.90291 122 124 110
0.174791 -0.50783 5.99481 150 114 90
-0.00892711 -0.555228 6.06202 92 92 70
0.161032 -0.504323 6.24596 155 126 102
0.0621227 -0.533637 5.8754 31 24 10
0.17811 -0.494169 6.27171 221 183 171
0.0409626 -0.533522 5.95849 77 76 55
0.157807 -0.500465 6.00208 100 70 41
0.00970895 -0.538255 6.25223 76 75 54
0.0813268 -0.519462 5.84779 93 80 60
0.143709 -0.495938 6.18767 88 56 38
0.167107 -0.49146 5.99582 218 180 166
0.062651 -0.518642 6.12291 70 54 37
0.183495 -0.482254 6.16456 213 170 156
-0.31572 -0.618137 6.75308 56 52 36
-0.121084 -0.567153 5.98226 42 36 24
0.157126 -0.485069 6.06819 196 154 134
-0.0891978 -0.561812 5.75006 28 18 12
-0.0777509 -0.558324 5.72229 43 34 27
-0.0688656 -0.556433 5.70789 35 28 20
0.131063 -0.483565 6.30009 136 98 84
0.146058 -0.472339 6.36959 124 82 61
-0.192147 -0.581928 5.97285 36 26 18
-0.0204104 -0.481323 7.64497 83 74 56
-0.188572 -0.577556 6.01883 44 33 24
0.0579315 -0.449834 7.79169 114 78 64
0.139519 -0.461341 6.48742 146 107 86
-0.114409 -0.547894 6.05763 32 30 20
-0.211617 -0.482572 8.82237 76 77 53
-0.203177 -0.573041 6.06972 48 37 30
0.107865 -0.440042 6.96657 166 127 104
-0.0412695 -0.539404 5.62467 32 24 17
0.112512 -0.451927 6.69754 127 102 78
-0.138691 -0.551506 6.02105 27 19 14
-0.208082 -0.554755 6.49196 31 27 16
0.179458 -0.444846 6.39423 204 164 145
-0.0169478 -0.420714 8.42891 88 89 63
0.042086 -0.434859 7.63629 128 120 98
0.0482283 -0.431514 7.67662 131 116 98
0.0591385 -0.419531 7.89442 154 128 106
-0.293395 -0.583092 6.24977 90 57 42
0.176703 -0.440984 6.37838 188 146 128
-0.536865 -0.576703 7.99851 27 21 14
-0.0584806 -0.464311 7.1949 77 78 56
0.0612544 -0.378276 7.99981 118 94 76
-0.0911022 -0.53611 5.7825 54 40 33
0.152107 -0.405469 6.76918 213 180 167
0.0769202 -0.419917 7.16031 115 101 81
0.104169 -0.430554 6.83588 141 120 96
0.138863 -0.418626 6.65353 215 190 172
-0.416495 -0.588752 6.56852 85 46 32
-0.534115 -0.607511 6.74575 122 90 67
-0.662849 -0.584718 7.69109 74 42 32
-0.306167 -0.537938 6.58897 54 35 28
-0.529399 -0.609227 6.71894 191 149 124
-1.19011 -0.604054 9.68999 70 42 30
-0.381946 -0.544783 6.80638 74 46 33
-0.520733 -0.59059 6.73774 184 146 125
-0.476588 -0.597375 6.64553 176 146 134
-0.264512 -0.533336 6.39094 88 52 42
-0.511627 -0.598788 6.55643 172 127 98
-0.117577 -0.393765 7.77679 42 20 10
-0.190757 -0.361985 8.59602 43 22 10
-0.0919759 -0.387003 7.79547 56 49 32
-0.521884 -0.572851 6.8893 122 86 69
-0.291209 -0.402074 8.2214 126 88 72
-0.101383 -0.387401 7.66477 58 37 24
-0.611145 -0.593673 6.83266 182 133 100
-0.0767155 -0.35542 7.88976 62 55 32
-0.527079 -0.576257 6.71164 118 76 52
-0.528694 -0.574967 6.74189 145 104 80
-1.32346 -0.616278 9.03779 149 109 85
-0.69482 -0.588952 7.00537 191 144 122
-1.34461 -0.605477 9.2187 159 114 83
0.046023 -0.371459 7.03403 81 80 54
0.10504 -0.411309 6.27326 80 78 54
-0.637193 -0.579862 6.89323 162 114 86
-0.18049 -0.241766 9.5918 106 98 80
-0.565842 -0.560995 6.70858 184 140 112
-0.271671 -0.275281 9.40174 76 49 33
-0.0655848 -0.364271 7.4794 92 66 46
-0.275421 -0.279627 9.29505 107 73 56
-0.955154 -0.470588 9.15223 90 52 43
-0.582103 -0.555554 6.76978 160 116 90
-0.653997 -0.557887 6.99754 175 134 106
-0.753714 -0.544565 7.36928 175 134 110
-0.918756 -0.566976 7.67151 140 94 72
-0.48958 -0.541161 6.44742 114 72 54
-0.476286 -0.537277 6.60154 178 136 115
-0.964703 -0.540191 8.0209 171 130 104
0.0209188 -0.284527 7.83905 100 93 70
-0.560855 -0.544634 6.61445 126 80 60
-0.460594 -0.529971 6.46566 136 90 70
-0.482575 -0.534771 6.43026 110 68 51
-0.973754 -0.517792 8.21394 168 127 106
0.115707 -0.401338 6.08309 146 118 114
-0.416549 -0.524513 6.36682 125 86 68
-0.797381 -0.519653 7.72547 163 123 97
-1.24584 -0.497239 9.13721 190 150 122
0.125319 -0.393421 6.13933 125 122 103
-0.577989 -0.537646 6.63143 134 98 76
-0.292471 -0.524089 5.93951 97 57 39
-1.08527 -0.494786 8.77704 171 130 106
-0.919075 -0.489069 8.26991 160 118 95
-1.05029 -0.475215 8.73464 150 108 88
-0.544585 -0.505873 6.77043 118 75 60
-0.584214 -0.499912 6.91643 130 86 72
-0.371725 -0.513799 6.1553 114 70 50
-0.423444 -0.514868 6.30811 132 90 70
-0.257877 -0.518281 5.83215 164 132 114
-0.444373 -0.508227 6.37652 124 82 62
-0.307813 -0.506248 6.03603 110 70 52
-0.506707 -0.499107 6.69585 87 50 33
-0.443742 -0.493212 6.52725 74 34 19
0.133389 -0.352776 6.39182 121 118 100
-1.33442 -0.411905 9.81815 156 107 81
-1.3513 -0.42227 9.92915 182 134 107
-0.276744 -0.512291 5.89134 126 88 70
-0.42254 -0.502782 6.24725 108 66 48
-0.233396 -0.504997 5.78236 88 51 32
-0.499365 -0.216091 9.29452 156 117 104
0.111672 -0.121257 8.55027 100 104 81
-0.328499 -0.498111 6.13128 99 66 50
-0.920502 -0.453172 8.22623 148 106 88
-0.220679 -0.507746 5.70794 194 180 156
-0.985624 -0.435035 8.45188 127 84 68
-0.634893 -0.428445 7.46447 108 60 47
0.0936551 -0.358355 6.224 206 188 182
-0.278931 -0.495915 5.91604 114 74 51
-1.25297 -0.321872 9.91853 130 87 71
-0.236047 -0.502514 5.74424 207 194 168
-0.319522 -0.0812278 9.61064 82 55 53
-0.25611 -0.486572 5.81091 172 132 109
-0.892906 -0.430423 7.75036 90 48 34
-0.731074 -0.438105 7.31633 104 62 48
0.0895704 -0.354 6.18538 168 146 142
-0.183215 -0.492494 5.60059 207 200 174
-0.262554 -0.488338 5.81531 135 90 63
-0.233325 -0.485129 5.76197 140 95 72
-0.650401 -0.43559 7.13662 98 57 43
-1.19578 -0.275431 9.75286 102 70 62
-0.06479 -0.293309 7.02929 76 48 44
-1.34282 -0.299186 9.8195 110 65 50
0.109476 -0.376155 5.91577 183 164 157
-0.688303 -0.366704 7.70642 106 63 49
-0.995907 -0.284381 9.00942 119 74 64
-0.611512 -0.4084 7.15211 103 60 48
-0.406329 -0.455347 6.30808 137 98 79
-0.253288 -0.471592 5.83605 58 20 6
-0.604325 -0.397251 7.14543 106 64 52
0.106553 -0.381165 5.78863 206 190 182
-0.301193 -0.463731 5.97258 124 76 59
-1.05107 -0.155419 9.85746 134 92 88
-0.271174 -0.475427 5.84368 163 132 110
-0.2189 -0.468398 5.73341 130 80 59
-0.387829 -0.440783 6.32827 104 62 45
-0.767995 -0.304748 8.12255 87 52 48
-0.259907 -0.464772 5.87027 110 62 44
-0.406729 -0.432932 6.40165 76 38 24
0.0604024 -0.336514 6.1412 133 98 95
-0.260753 -0.455195 5.89723 130 88 67
-0.248123 -0.457252 5.83454 126 78 59
-0.0891461 -0.253891 7.05938 160 128 126
-0.981197 -0.234576 8.92135 98 64 56
-0.456746 -0.409205 6.60942 79 39 27
-0.363203 -0.435336 6.19728 116 78 54
-0.115334 -0.441347 5.68983 84 43 30
-1.01334 -0.177681 9.31944 102 62 58
-0.247828 -0.457594 5.81921 108 65 47
-0.231716 -0.46322 5.74232 150 134 112
-0.220874 -0.463596 5.72511 137 115 98
-0.764228 -0.370416 7.32396 120 84 62
-0.553693 -0.382824 6.92382 74 31 18
-0.230847 -0.459505 5.75726 194 180 159
-0.513472 -0.377185 6.83713 83 40 26
-0.204147 -0.459112 5.69704 176 154 144
-0.316283 -0.43143 6.09391 116 79 59
-0.526813 -0.359009 6.95008 114 73 61
-0.481469 -0.365383 6.84699 88 48 34
-0.476385 -0.368031 6.85642 76 37 24
-0.224101 -0.453104 5.74081 134 115 97
-0.207362 -0.447349 5.74212 125 79 59
-0.202474 -0.445582 5.73793 122 78 56
-0.200506 -0.445079 5.74417 134 92 69
-0.312852 -0.418416 6.10544 114 76 60
-0.278734 -0.42198 6.01684 128 90 77
-0.738849 -0.195279 8.28976 160 124 120
0.101193 -0.375621 5.68288 146 128 119
-0.637413 -0.330791 7.25971 112 70 57
-0.176065 -0.448895 5.6364 108 63 42
-0.283953 -0.415191 6.02709 86 48 32
0.112607 -0.401746 5.46578 157 124 120
0.0664852 -0.331003 6.00504 92 74 65
-0.282634 -0.408366 6.06428 105 64 52
-0.78285 -0.22549 8.12654 88 56 52
-0.494184 -0.293017 7.15688 34 16 10
-0.188634 -0.4436 5.66824 107 62 41
-0.298621 -0.417231 6.02393 125 84 64
-0.255295 -0.41734 5.94078 94 58 42
-0.640334 -0.293968 7.3613 164 123 110
-0.185851 -0.441083 5.65864 114 68 47
-0.641496 -0.250765 7.61364 107 74 68
-0.32119 -0.367409 6.33042 120 78 64
-0.220494 -0.440029 5.72055 184 166 143
0.0967038 -0.365687 5.67428 127 106 100
-0.419286 -0.365161 6.47925 79 44 30
0.00528489 -0.263698 6.36081 137 102 99
-0.277558 -0.168176 7.50853 109 78 76
-0.419701 -0.330665 6.6706 128 86 74
-0.314626 -0.384049 6.16958 108 66 50
-0.396493 -0.351971 6.49724 96 53 42
-0.199385 -0.433851 5.66249 200 180 156
0.0891631 -0.353784 5.71855 157 142 135
-0.406736 -0.33699 6.56184 100 54 40
-0.728301 -0.191809 7.88602 105 70 64
0.0990797 -0.370001 5.6028 130 104 98
-0.251057 -0.412091 5.8534 106 60 39
-0.28036 -0.393672 6.01349 109 62 44
-0.409591 -0.326782 6.58476 114 69 54
-0.269709 -0.388422 5.99666 98 50 32
0.092136 -0.359698 5.65128 162 139 136
-0.304374 -0.379634 6.10995 96 48 34
-0.154476 -0.432681 5.56022 196 180 152
-0.0101882 -0.303833 6.10884 142 103 98
-0.00377946 -0.295277 6.14042 100 62 58
-0.278781 -0.392113 5.95036 108 59 38
-0.337007 -0.305433 6.53401 91 56 50
-0.333079 -0.303279 6.54107 64 34 28
0.0898235 -0.361535 5.62129 140 114 110
-0.260863 -0.370327 6.0456 113 68 54
-0.626363 -0.118991 7.97137 86 49 40
-0.141081 -0.226081 6.66892 106 68 66
-0.145316 -0.217287 6.7343 118 76 72
-0.0967419 -0.253098 6.48599 141 98 94
-0.160667 -0.147092 7.05912 90 58 54
-0.71148 -0.060986 8.39142 102 64 54
-0.222658 -0.410033 5.7577 122 80 61
-0.204139 -0.404925 5.73888 126 72 52
-0.325003 -0.301438 6.50692 83 46 38
0.0899586 -0.361364 5.60575 198 175 170
-0.351902 -0.342156 6.3218 84 38 24
-0.10491 -0.217733 6.62105 89 52 47
-0.353515 -0.334205 6.3376 106 56 42
-0.176632 -0.414757 5.63811 85 40 22
-0.747631 -0.194079 7.70267 112 67 51
-0.392149 -0.296876 6.57315 90 44 31
-0.384651 -0.295947 6.56872 90 46 33
-0.171771 -0.418239 5.59872 184 166 140
-0.135839 -0.417195 5.56882 112 60 42
-0.247317 -0.148482 7.13744 146 108 105
-0.195107 -0.404624 5.6906 114 63 45
-0.12356 -0.425596 5.49819 101 55 36
-0.259017 -0.372375 5.95304 104 60 48
-0.206005 -0.395202 5.75914 110 58 38
0.0523388 -0.315005 5.86313 154 123 116
-0.190644 -0.401652 5.67865 120 70 53
-0.234298 -0.328262 6.14839 80 39 32
-0.171586 -0.41306 5.5986 166 146 121
-0.251831 -0.370753 5.92672 132 96 88
-0.142857 -0.250172 6.42277 144 134 124
0.00722559 -0.307864 5.93795 160 127 125
-0.18071 -0.400982 5.65127 113 68 50
-0.265664 -0.310287 6.26386 110 69 60
-0.14154 -0.401357 5.61567 156 125 116
-0.172171 -0.324864 6.05891 85 45 38
-0.372031 -0.218781 6.85509 81 42 34
-0.382783 -0.228843 6.80938 85 44 38
-0.722299 -0.0283908 8.25687 93 51 44
0.0768481 -0.335589 5.65555 187 163 156
-0.388975 -0.185715 7.02193 104 64 54
-0.202595 -0.158431 6.89781 122 81 78
-0.174684 -0.176802 6.77971 125 83 83
-0.238634 -0.111752 7.18506 134 92 92
-0.197003 -0.401725 5.66059 153 132 109
-0.348473 -0.267372 6.55204 110 66 58
0.0922388 -0.360415 5.52466 214 198 190
-0.10033 -0.268397 6.19666 128 113 102
-0.450637 -0.217188 6.88255 112 72 64
-0.303171 -0.276756 6.38795 138 108 103
0.0928534 -0.364292 5.48306 183 155 149
-0.155069 -0.399911 5.56598 147 118 98
-0.159083 -0.358467 5.79433 98 50 38
-0.0308541 -0.26377 6.09976 130 90 89
-0.150371 -0.356405 5.78883 83 36 24
-0.382402 -0.193741 6.85247 106 60 54
-0.0693522 -0.239099 6.24555 121 78 78
0.093247 -0.364513 5.46919 209 185 181
-0.0858052 -0.418735 5.39422 106 82 66
-0.255409 -0.313474 6.11081 92 44 30
-0.347216 -0.244624 6.53339 160 140 138
-0.273592 -0.325115 6.06187 103 48 35
0.0994642 -0.372696 5.40234 166 131 122
-0.19804 -0.345272 5.85147 108 55 40
-0.203351 -0.377499 5.69804 84 56 44
-0.476298 -0.272864 6.47387 117 69 53
-0.148768 -0.389495 5.55409 158 132 118
-0.312926 -0.26345 6.40715 120 77 70
-0.136952 -0.315119 5.91103 98 47 39
0.109147 -0.384813 5.31729 168 130 124
-0.216314 -0.278125 6.14743 106 53 46
-0.226527 -0.349315 5.81988 78 32 14
-0.0467192 -0.387345 5.46113 110 58 45
-0.212137 -0.305714 6.01576 127 72 62
0.101082 -0.376009 5.35759 169 126 117
-0.0803053 -0.403067 5.41329 102 57 38
-0.154348 -0.370306 5.63789 153 115 102
0.0826659 -0.367084 5.40937 126 82 80
0.0940421 -0.383587 5.31905 124 76 76
0.100176 -0.37408 5.35735 170 132 126
-0.0597347 -0.401394 5.38768 91 52 43
-0.0965425 -0.331712 5.74795 132 74 64
-0.0830675 -0.401744 5.40697 92 48 31
-0.180681 -0.365596 5.6729 108 63 45
0.0564373 -0.3214 5.59645 162 125 122
-0.136219 -0.321577 5.79705 119 72 69
-0.581721 -0.103799 7.15816 112 60 51
-0.0381354 -0.380594 5.43147 102 54 44
-0.120522 -0.383327 5.4906 166 144 133
-0.0491185 -0.406945 5.3166 100 64 46
-0.268881 -0.254263 6.23756 165 138 136
-0.0564471 -0.386292 5.40964 90 38 29
-0.23037 -0.307324 5.9301 89 38 26
-0.231125 -0.306861 5.94101 104 50 39
0.0623338 -0.334498 5.49726 188 160 159
-0.198149 -0.261047 6.05353 112 54 45
-0.152153 -0.346557 5.61799 152 110 94
-0.105291 -0.363373 5.50075 116 74 58
-0.185285 -0.320683 5.72997 162 118 108
-0.0834291 -0.370594 5.43914 152 112 92
-0.0474755 -0.385314 5.3415 155 117 106
-0.197853 -0.307108 5.76181 131 93 82
-0.0751085 -0.367124 5.43247 112 68 58
-0.0278633 -0.385561 5.31736 106 58 46
-0.0416267 -0.369626 5.39225 91 45 38
-0.26413 -0.238517 6.13138 96 46 39
-0.0571234 -0.37357 5.38782 123 73 59
0.0518974 -0.854137 5.38527 197 200 152
-0.274052 -1.06484 5.72269 144 138 108
-0.0338723 -0.918992 5.61441 128 132 101
0.757115 -1.17188 7.48878 88 88 54
-0.298325 -1.05346 5.77646 116 113 80
-0.31176 -0.984514 6.14617 109 109 88
-0.404489 -1.07022 6.44594 126 122 96
-0.0440579 -0.980038 6.99634 146 150 117
-0.101776 -0.901931 6.62756 199 201 154
-0.257927 -0.898651 6.31955 114 113 91
-0.156299 -0.902289 6.69369 140 137 91
-0.186931 -0.860154 6.33917 126 128 89
-0.237922 -0.749797 5.49218 162 144 94
-0.474145 -1.11074 8.25052 128 124 74
-0.22196 -0.747026 5.76437 64 58 34
-0.268317 -0.840409 6.69446 80 86 52
-0.225877 -0.731368 5.77596 105 86 64
-0.320408 -0.773599 6.01219 156 124 97
-0.104044 -0.659398 5.55405 106 100 70
0.175161 -0.582565 5.76813 85 94 58
-0.11087 -0.659232 5.57088 158 149 110
-0.108822 -0.655519 5.552 200 200 156
0.241767 -0.560747 5.92715 176 139 126
0.168418 -0.560781 5.61487 152 144 112
0.104276 -0.579608 5.66288 72 60 38
0.121875 -0.565976 5.93149 62 52 38
0.160281 -0.544601 5.75001 96 68 47
-0.193469 -0.627379 5.08715 164 158 100
0.0650207 -0.5306 5.92491 38 30 18
0.11988 -0.515584 5.53871 33 14 10
0.166398 -0.426367 6.44328 190 154 140
0.161679 -0.43049 6.21464 189 171 162
-0.0424149 -0.354411 8.74968 59 62 38
-0.463343 -0.596936 6.66573 124 113 114
0.112711 -0.397037 6.71294 52 59 32
0.178038 -0.437913 5.74595 103 102 78
0.121284 -0.394056 6.05601 112 107 92
0.118464 -0.392952 6.03722 125 101 94
-0.715906 -0.418277 7.70838 84 36 23
-0.723422 -0.344716 7.77774 75 32 21
-0.409633 -0.429273 6.42811 49 15 6
-0.511537 -0.359778 6.92254 78 38 26
-0.136089 -0.189172 7.17485 134 106 104
-0.370678 -0.339 6.35877 62 21 10
-0.17942 -0.415512 5.6287 82 45 26
-0.261108 -0.364312 5.95033 116 80 70
0.296242 -1.03298 5.96845 124 131 94
-0.079274 -0.922469 6.16634 119 127 83
-0.20729 -0.764699 5.54125 149 148 98
-0.182092 -0.855552 6.34834 168 173 130
-0.170409 -0.743742 5.61032 120 122 80
0.239075 -0.624654 5.75562 84 74 36
-0.19875 -0.741603 5.54327 98 99 62
-0.248347 -0.755619 5.52687 136 116 66
0.255402 -0.586671 5.82865 156 127 100
0.12159 -0.524382 5.52958 43 22 14
-0.122861 -0.422655 7.99957 62 62 42
-0.387728 -0.558487 6.44945 98 69 54
-0.138038 -0.252332 9.79268 52 56 30
-0.74457 -0.547567 7.6553 137 96 66
-0.174375 -0.409086 5.60078 140 117 96
-0.0608094 -0.95848 5.70095 98 108 71
-0.084243 -0.930535 5.98223 108 121 80
-0.212753 -0.827756 6.46894 83 88 56
0.235341 -0.612989 5.81482 112 86 52
-0.181578 -0.479851 7.6385 28 30 18
-0.352184 -0.239194 6.54829 117 82 73
0.256567 -0.997503 5.95799 110 119 80
0.177658 -0.942486 5.93745 166 171 125
0.150339 -0.851599 5.64509 162 164 120
-0.844526 -1.66261 7.26453 114 111 88
0.109819 -0.747823 5.28981 198 202 155
-0.471792 -1.20234 6.32125 120 120 81
0.0888223 -0.944705 6.14481 124 126 82
-0.0923895 -0.913998 6.01927 118 125 80
-0.142367 -0.955472 6.16704 168 168 120
-0.155204 -0.956223 6.25843 154 160 114
-0.260871 -0.974233 6.2123 116 115 91
-0.493336 -1.12953 6.7028 136 136 101
-0.0500414 -0.93009 6.53237 166 166 115
0.0922261 -0.772053 5.87719 118 126 84
-0.436864 -1.04905 6.61341 139 136 106
-0.0882159 -0.881416 6.33077 124 126 78
0.0816277 -0.758362 5.91945 118 126 91
-0.173986 -0.867711 6.1244 119 121 86
-0.440941 -1.04692 6.76381 127 127 104
0.0752834 -0.736857 5.92134 156 164 128
0.0721011 -0.722812 5.8015 72 84 58
0.231405 -0.628964 5.55704 172 180 137
-0.333001 -0.907339 6.45449 115 116 84
-0.314183 -1.02654 7.68702 142 140 93
-0.220295 -0.762619 5.72965 87 86 58
-0.17143 -0.741646 5.67851 141 142 102
-0.322583 -0.920582 7.34642 124 122 68
0.187995 -0.597558 5.44747 106 92 58
0.175208 -0.598895 5.5366 102 98 60
0.251116 -0.587846 5.69326 200 188 158
0.249518 -0.578131 5.69703 158 122 94
0.257198 -0.582189 5.78684 182 160 130
-0.394266 -0.788037 6.15504 172 146 104
-0.0833604 -0.673595 5.77464 87 68 44
0.190677 -0.591896 5.78473 156 168 130
0.258985 -0.573689 5.8311 201 200 162
0.106906 -0.602954 5.56258 173 162 137
0.0294194 -0.648075 6.10281 72 58 50
0.115994 -0.591982 5.48863 93 63 50
-0.37476 -0.766103 6.07997 196 198 150
-0.370213 -0.756364 6.12314 170 120 94
-0.430898 -0.770616 6.23673 191 178 133
-0.104756 -0.649131 5.57069 98 81 53
0.126684 -0.582669 5.569 60 48 23
0.245324 -0.572933 6.36245 192 155 145
-0.461674 -0.773389 6.36583 164 112 83
0.242306 -0.554612 6.07927 184 146 133
-0.0873011 -0.63675 5.544 180 168 151
0.241418 -0.549903 5.86336 178 154 132
0.225775 -0.550705 5.77976 150 110 96
0.238709 -0.54943 5.93109 189 155 140
-0.104289 -0.638168 5.57691 97 80 51
0.214876 -0.556696 5.99691 154 134 104
0.218279 -0.553557 5.86895 156 114 94
0.242068 -0.547332 5.93825 190 176 148
0.0886414 -0.580242 5.54715 82 55 44
-0.120714 -0.640903 5.64015 109 97 79
0.211777 -0.551679 5.92351 139 113 85
0.209263 -0.553856 5.9722 184 180 143
-0.19185 -0.666543 5.94609 38 26 11
-0.188395 -0.666252 5.81966 148 136 101
-0.226725 -0.674662 6.077 52 48 30
0.206577 -0.549182 5.89512 174 166 134
-0.442746 -0.742333 6.29263 194 172 128
0.204666 -0.547704 5.9487 165 153 122
0.188852 -0.538278 5.51158 192 195 153
0.199972 -0.54213 5.94916 172 167 133
0.215284 -0.534265 5.82286 200 164 153
0.161428 -0.539529 5.79741 79 52 30
0.160923 -0.537158 5.8221 77 52 34
0.161835 -0.524142 5.78464 89 63 44
0.192846 -0.515632 5.83968 160 116 99
0.179895 -0.51389 6.05518 116 74 48
0.168835 -0.516843 5.91111 156 140 122
0.255557 -0.494755 5.69329 143 154 106
0.263457 -0.495812 5.45835 139 149 100
0.263605 -0.495645 5.42157 139 149 100
0.264894 -0.496402 5.39838 139 150 99
0.268266 -0.49534 5.40937 140 148 98
0.270274 -0.49496 5.39445 140 150 103
0.15968 -0.5205 5.83893 92 66 44
0.228361 -0.496558 5.90968 136 149 102
0.231961 -0.501507 5.69771 138 150 102
0.24168 -0.499072 5.67584 139 149 102
0.245937 -0.49801 5.66591 135 148 101
0.248442 -0.497386 5.65992 134 148 98
0.200771 -0.501312 6.00079 190 176 159
-0.134834 -0.596271 5.933 38 32 20
0.168661 -0.513268 5.59723 94 66 49
-0.355941 -0.651078 6.29483 90 88 72
-0.350721 -0.649618 6.29571 96 86 70
-0.155843 -0.597518 5.94511 65 48 37
-0.104624 -0.585891 5.7726 54 42 32
-0.340686 -0.597078 8.14843 92 91 70
-0.130241 -0.587227 5.82912 53 39 28
-0.071173 -0.571718 5.71598 31 25 14
-0.615632 -0.697154 7.00384 118 112 98
-0.110953 -0.582304 5.72971 47 32 22
-0.287575 -0.61236 6.27147 44 28 18
0.194537 -0.485906 6.05236 208 186 182
0.0942565 -0.51481 5.86986 64 54 41
-0.404799 -0.646283 6.34181 82 68 52
-0.364456 -0.623908 6.39689 64 34 22
-0.739696 -0.708822 7.23188 126 108 94
0.161785 -0.491215 6.01849 174 132 114
0.19362 -0.48289 5.9414 184 163 153
-0.096004 -0.566543 5.76901 30 23 18
-0.408503 -0.625354 6.41432 104 82 68
0.190646 -0.467975 6.10957 200 179 172
-0.541318 -0.635912 6.9979 80 50 36
-0.404231 -0.618372 6.34616 131 104 93
-0.367661 -0.607045 6.28172 134 109 97
-0.595893 -0.647476 6.80785 138 91 67
-0.656222 -0.665945 6.82461 173 170 153
-0.584968 -0.627955 6.80372 170 122 96
0.185768 -0.445269 6.15993 189 166 150
-0.441841 -0.611506 6.40368 168 118 90
-0.454962 -0.617244 6.33323 150 123 102
-0.363229 -0.596435 6.29332 121 100 84
0.177563 -0.446883 6.03281 186 162 147
-0.474449 -0.579101 6.70983 106 90 84
-0.52244 -0.594452 6.61206 150 101 68
-0.416494 -0.595477 6.21861 176 158 138
-0.316222 -0.31608 9.41074 68 42 32
-0.682628 -0.532984 7.23678 97 54 32
-0.285869 -0.53657 5.88438 152 130 108
-0.253439 -0.529562 5.7984 178 161 137
-0.452794 -0.521208 6.48837 128 90 77
-0.506962 -0.513027 6.65924 106 64 50
-0.434353 -0.201943 9.75534 136 98 80
-0.260778 -0.526933 5.82952 157 135 111
-0.229904 -0.518737 5.73807 188 182 157
-0.371274 -0.516975 6.24129 122 87 73
-0.0128018 -0.335167 7.01158 155 130 129
-0.101306 -0.256964 7.94027 116 88 85
-0.224579 -0.512553 5.72316 163 144 121
-0.437255 -0.495136 6.4047 88 53 36
-0.222498 -0.507653 5.74228 104 68 50
-0.87018 -0.391724 8.32946 80 32 22
0.0964467 -0.350561 6.3733 173 156 148
0.109347 -0.377523 6.01697 162 150 140
0.0639113 -0.332402 6.43978 69 44 42
-0.670408 -0.411699 7.28337 80 35 23
-0.976222 -0.253739 8.91163 140 118 112
-1.20553 -0.168475 9.72608 95 53 40
-0.284747 -0.459 5.94502 114 68 48
-0.218901 -0.471958 5.70959 118 97 78
-0.506591 -0.373863 6.83758 90 42 26
-0.570476 -0.350821 7.05762 110 62 46
0.102342 -0.36768 5.78096 162 143 134
0.0732425 -0.329529 6.07486 138 110 101
-0.723705 -0.235436 7.91777 78 46 41
-0.373852 -0.383627 6.35552 98 58 44
-0.367138 -0.37534 6.34987 48 20 8
-0.729501 -0.183818 7.92711 127 103 96
-0.340516 -0.393806 6.15178 101 56 38
-0.729373 -0.172816 7.929 122 102 95
-0.420786 -0.360704 6.41728 108 56 38
-0.199323 -0.412262 5.71002 105 54 34
-0.296752 -0.112966 7.38471 91 60 54
-0.186117 -0.409057 5.632 138 116 93
-0.277497 -0.359674 5.98327 66 25 14
-0.300465 -0.323268 6.20711 100 50 36
-0.32388 -0.29426 6.22245 97 41 28
-0.254382 -0.350887 5.86023 93 50 35
-0.231377 -0.111734 6.92197 130 86 86
-0.175597 -0.382097 5.62211 78 52 38
-0.215457 -0.122594 6.83133 120 73 71
-0.221233 -0.14599 6.75051 116 86 82
-0.5092 -0.148866 6.95618 96 62 42
-0.295873 -0.276931 6.14029 106 48 34
-0.14837 -0.139837 6.53983 125 84 80
-0.268126 -0.0511076 7.07875 124 77 75
-0.0924803 -0.193876 6.26208 114 74 69
-0.270678 -0.244868 6.26219 116 72 64
0.0282673 -0.292634 5.74987 124 84 80
-0.106019 -0.161204 6.36188 74 40 38
-0.166325 -0.13243 6.54828 120 76 76
-0.150218 -0.152381 6.43228 115 67 67
-0.19709 -0.337585 5.71309 126 89 72
-0.201395 -0.161521 6.3427 92 50 44
-0.0111509 -0.23739 5.89244 161 142 142
-0.720189 0.14535 7.98045 94 73 49
-0.225143 -0.239328 6.07277 96 51 42
-0.102613 -0.181265 6.15173 125 82 82
-0.0970926 -0.175916 6.17584 106 68 66
-0.186815 -0.184187 6.18483 78 34 30
-0.00357706 -0.260662 5.7595 118 79 78
-0.751394 0.19645 7.9896 82 54 33
-0.755405 0.207436 7.99373 88 68 44
-0.00595876 -0.258841 5.72047 138 110 110
-0.0323629 -0.228739 5.84439 148 126 128
-0.281652 -0.0745853 6.58488 118 70 60
-0.168181 -0.16194 6.14428 124 84 79
-0.185911 -0.147643 6.20288 126 85 79
-0.141636 -0.177148 6.05593 106 84 58
-0.0665134 -0.195858 5.93245 115 86 84
-0.148866 -0.182525 6.00574 122 80 71
-0.156086 -0.171466 6.00853 161 134 131
-0.0505756 -0.932403 5.66084 137 140 108
-0.437046 -1.19322 6.33706 83 86 64
-0.276238 -1.00028 6.25308 120 122 90
-0.207158 -0.756112 5.70685 82 81 56
0.0834693 -0.580035 5.57844 91 68 59
-0.234672 -0.517666 5.75839 151 130 104
0.0726997 -0.334963 6.34885 104 75 70
0.0474053 -0.31726 6.0254 124 88 84
-0.0874657 -0.179814 6.15506 131 98 96
-0.125629 -0.153829 6.27528 124 85 86
-0.221305 -0.220105 6.05355 72 32 27
-0.166256 -0.159304 6.15518 120 83 70
0.0758429 -0.564283 5.98032 55 54 36
-0.233486 -0.479658 5.74909 156 134 112
-0.20643 -0.129582 7.15873 113 70 66
-0.330969 -0.25629 6.47273 138 114 108
-0.290787 -0.958432 6.33452 89 92 66
0.193212 -0.90692 5.47125 158 162 109
0.197849 -0.935291 5.54371 76 82 32
-0.27137 -1.07411 5.50028 146 142 92
-0.235518 -1.02183 5.41765 167 163 114
-0.282758 -1.08443 5.54218 55 58 20
-0.228352 -1.02138 5.44366 148 147 96
0.296172 -0.974352 5.80399 144 150 102
0.280615 -0.948132 5.74496 82 94 59
-0.00990558 -0.878141 5.32263 75 82 36
-0.0152623 -0.895954 5.41569 100 102 68
-0.0404595 -0.923354 5.46167 118 118 74
-0.0287228 -0.92459 5.48371 114 114 74
0.161402 -0.834285 5.44498 72 81 40
-0.0301257 -0.929193 5.52287 115 116 71
-0.0445634 -0.918602 5.50116 136 136 92
-0.351564 -1.127 5.80983 61 62 43
0.616069 -0.933812 6.30214 98 98 60
-0.0509179 -0.924169 5.54839 106 108 68
0.695157 -1.01436 6.65103 156 154 109
-0.0603356 -0.940169 5.59324 120 120 81
0.1465 -0.857836 5.57151 154 158 108
-0.0596898 -0.935881 5.59136 132 134 92
0.569783 -0.912532 6.27799 96 92 54
0.685874 -1.05618 6.92831 66 64 24
-0.283258 -1.04412 5.87696 79 82 39
0.146518 -0.849683 5.68134 156 158 116
0.14301 -0.85479 5.71471 116 124 82
0.141076 -0.851042 5.71195 88 99 57
0.12208 -0.869417 5.82089 87 98 49
-0.0388789 -0.920599 5.8775 110 116 68
0.0837943 -0.962696 6.21121 96 102 54
-0.110138 -0.974022 6.03065 86 96 57
0.0468259 -1.00729 6.5434 116 120 69
-0.0436555 -0.897807 5.96808 116 126 80
-0.468877 -1.14614 6.4511 90 92 60
0.493881 -1.14434 8.01394 87 94 76
0.507619 -1.19089 8.29459 67 72 52
-0.446688 -1.1119 6.44564 92 89 56
-0.0603762 -0.919984 6.14261 142 146 102
-0.0874613 -1.28455 7.9198 119 121 70
-0.0601105 -0.914833 6.14267 113 117 74
-0.0496042 -0.891267 6.07338 98 107 60
0.39962 -1.07827 7.83194 76 84 60
0.378679 -0.976144 7.28517 63 70 54
-0.282169 -1.00207 6.2997 140 140 99
-0.367719 -1.01538 6.30043 77 75 47
-0.0640794 -0.967578 6.67377 144 145 94
-0.0910723 -1.01393 6.90919 145 146 96
-0.175844 -0.95654 6.39675 116 118 69
-0.0480221 -0.859607 6.11705 114 117 68
0.269833 -1.0807 8.02176 44 54 24
-0.114664 -0.870658 6.11083 101 102 50
0.251327 -0.905561 7.12196 80 86 68
-0.198485 -0.958883 6.55758 110 112 63
0.266676 -0.952203 7.51807 72 77 58
-0.11755 -0.883178 6.36247 120 122 80
-0.137811 -0.99246 7.25636 126 123 83
0.216399 -1.0208 8.14053 78 84 71
-0.457519 -1.03297 6.75454 128 126 92
0.271588 -0.651034 5.66839 153 155 111
0.265439 -0.657726 5.69977 84 79 34
-0.0801347 -0.854072 6.39254 80 90 40
0.26744 -0.648093 5.66576 74 64 29
-0.21802 -0.869804 6.23072 65 69 42
0.253526 -0.654311 5.73576 108 116 70
-0.241542 -0.870432 6.39235 92 93 64
0.139283 -0.761716 6.54639 70 74 56
0.235489 -0.647752 5.85245 56 62 26
0.0574145 -0.69453 5.76749 46 54 30
-0.169041 -0.833301 6.46629 152 154 110
-0.363051 -0.909652 6.67304 73 74 44
-0.19372 -0.838075 6.46211 62 70 32
-0.30827 -0.86414 6.44933 131 134 95
0.0358022 -0.773513 6.87794 46 50 31
-0.466076 -1.09639 8.84298 108 106 56
0.189173 -0.599176 5.422 108 104 63
0.263612 -0.604617 5.78745 170 172 132
0.259542 -0.601293 5.78754 148 126 95
0.262984 -0.601035 5.78698 166 164 124
0.142047 -0.610053 5.45223 166 174 135
0.270812 -0.603105 5.88116 168 173 130
0.146603 -0.605973 5.44654 165 176 134
0.141767 -0.609733 5.48891 79 75 46
0.14401 -0.606858 5.48469 137 135 104
-0.151763 -0.713415 5.75193 60 64 32
-0.10365 -0.672035 5.43917 48 27 10
0.143849 -0.608876 5.52907 74 67 36
0.213631 -0.603849 5.73573 75 80 46
-0.256646 -0.741184 5.79923 149 122 82
0.127153 -0.606841 5.52226 114 98 70
-0.211485 -0.723344 5.79255 72 50 27
-0.302674 -0.90752 8.42228 76 81 66
0.263697 -0.581031 5.87248 162 152 114
-0.291457 -0.751684 5.88549 151 128 86
-0.647571 -1.01633 8.76119 100 103 62
-0.127258 -0.676915 5.57903 75 70 40
0.154233 -0.603634 5.70643 80 90 50
-0.123013 -0.671948 5.54221 56 34 16
-0.234423 -0.744422 6.19482 128 132 94
0.117155 -0.600645 5.49621 80 53 32
-0.336047 -0.755188 6.00144 132 87 57
0.116263 -0.59391 5.46814 70 47 24
0.10995 -0.596155 5.53099 78 51 33
0.134014 -0.595341 5.66227 130 134 93
0.107297 -0.596214 5.5599 80 53 37
-0.120355 -0.658963 5.56242 84 56 26
-0.443425 -0.782976 6.30079 127 78 52
0.021927 -0.628475 5.92161 76 76 67
-0.416252 -0.769287 6.29977 133 122 78
-0.142344 -0.657975 5.56238 149 132 85
-0.0530246 -0.623425 5.4801 46 49 30
-0.397951 -0.748595 6.24293 124 108 70
-0.13451 -0.654288 5.5602 73 36 12
-0.110098 -0.642952 5.48915 63 37 12
-0.044647 -0.645709 6.21072 92 94 85
0.237568 -0.563273 6.26322 152 114 98
-0.39571 -0.742273 6.17122 148 98 70
0.110151 -0.578003 5.58208 43 32 14
-0.113128 -0.637775 5.51433 83 50 27
-0.381325 -0.731584 6.1949 113 91 52
-0.214339 -0.678725 6.0568 46 49 30
0.228015 -0.546929 6.12299 147 110 92
-0.43901 -0.745919 6.27443 156 120 82
-0.0676106 -0.644804 6.375 106 109 102
-0.169304 -0.653832 5.88616 56 56 38
-0.162633 -0.649319 5.64499 48 28 6
-0.206408 -0.667662 5.89791 52 42 18
0.0980546 -0.57274 5.5566 46 42 22
-0.485068 -0.748101 6.39334 164 146 100
-0.454677 -0.738985 6.3803 100 60 32
-0.16523 -0.648913 5.69757 178 169 147
-0.0735629 -0.627496 6.35409 128 126 122
0.103882 -0.564404 5.43035 44 38 22
-0.519023 -0.748143 6.54473 124 82 57
0.0700056 -0.571994 5.61686 51 32 20
0.083755 -0.5658 5.52614 32 26 12
0.175875 -0.538049 5.73824 108 84 53
0.0662342 -0.566535 5.61734 50 39 22
-0.443966 -0.715455 6.75646 72 75 56
-0.164348 -0.632599 5.76927 74 78 62
0.0806479 -0.561534 5.51752 46 41 22
-0.172681 -0.630896 5.70001 68 72 52
0.181604 -0.53002 5.97228 122 92 56
-0.0176537 -0.587173 5.99499 38 34 26
0.184971 -0.515371 7.09389 114 76 46
-0.0339941 -0.579961 6.07682 70 68 56
0.0714875 -0.546732 6.06488 16 10 2
0.189595 -0.506153 6.52377 138 93 70
-0.277959 -0.643649 6.02675 56 60 45
0.192972 -0.505743 6.15517 168 127 117
0.295885 -0.486244 5.52512 104 118 72
0.291046 -0.487565 5.44982 107 122 76
0.346033 -0.468291 5.85126 106 120 75
-0.131172 -0.589323 6.55925 114 112 104
0.248218 -0.498072 5.5561 101 115 72
0.247625 -0.499506 5.49539 103 116 74
0.249636 -0.498553 5.49156 98 111 69
0.278589 -0.492425 5.44589 114 128 83
0.280346 -0.49113 5.4436 99 114 69
-0.379153 -0.66616 6.13376 60 64 41
-0.32095 -0.628125 7.6906 101 101 92
0.227854 -0.501492 5.67791 98 115 69
-0.299533 -0.647445 5.93116 68 69 50
-0.15626 -0.609286 5.59642 70 67 50
-0.224946 -0.620017 5.8069 81 73 60
-0.413674 -0.673487 6.19023 72 77 60
-0.308121 -0.630449 6.16933 62 38 20
-0.286502 -0.623282 6.11963 54 28 17
-0.157936 -0.591795 5.85223 26 17 12
-0.157727 -0.576515 6.87699 61 60 46
-0.367842 -0.646818 6.08889 70 66 48
-0.398066 -0.650905 6.19733 83 60 41
-0.301612 -0.624165 6.10328 50 37 28
-0.267572 -0.582931 7.23623 59 64 48
-0.449128 -0.656325 6.31712 120 91 70
0.195332 -0.471491 6.2884 156 130 124
-0.631895 -0.695499 6.77161 60 62 44
-0.427304 -0.64401 6.33729 114 82 68
-0.274875 -0.613449 5.93921 87 68 54
-0.440462 -0.62991 6.66694 38 15 8
-0.487977 -0.638135 6.63701 94 73 62
-0.229041 -0.582011 6.19355 20 15 11
-0.301174 -0.603356 6.09484 27 10 4
-0.472919 -0.65067 6.27573 108 108 90
-0.364344 -0.628315 5.97059 72 75 58
-0.34346 -0.603086 6.23029 50 37 28
-0.428664 -0.625218 6.28296 114 70 54
-0.464719 -0.625697 6.43489 119 73 44
-0.529512 -0.606468 7.07841 45 20 12
-0.456883 -0.627907 6.41569 120 71 40
-0.524738 -0.605919 7.03303 72 30 21
0.188413 -0.430456 6.48243 162 142 127
0.182399 -0.429136 6.48282 141 98 78
0.149901 -0.378995 7.38644 166 136 121
0.176904 -0.413331 6.64316 152 116 100
-0.545836 -0.600271 6.56547 166 152 128
0.172325 -0.429964 6.15534 164 147 135
-0.418139 -0.577043 6.26735 130 95 70
-0.584089 -0.578772 6.74906 134 88 60
-0.253725 -0.540388 5.80365 82 52 30
-0.419891 -0.514631 6.43242 88 46 30
-0.412608 -0.503448 6.41071 60 31 24
-0.656388 -0.46612 7.4332 146 100 80
-0.79746 -0.447932 7.86147 94 45 28
0.00486512 -0.275804 7.38334 97 66 62
-0.213943 -0.502236 5.68812 128 100 76
-0.180006 -0.500277 5.59292 140 114 88
-0.183374 -0.492541 5.5998 127 100 74
0.0508116 -0.304462 6.42306 105 78 74
-0.476797 -0.382055 6.57298 77 38 20
0.111022 -0.386017 5.59799 110 92 82
-0.500718 -0.132469 8.01368 62 24 14
-0.0270131 -0.224766 6.65395 80 46 40
0.00711677 -0.262879 6.36133 94 58 51
-0.264801 -0.0852126 7.59881 89 50 44
-0.484705 -0.097935 7.76775 82 35 22
-0.208847 -0.127053 7.23554 95 56 49
-0.243975 -0.096826 7.37972 84 46 40
-0.223268 -0.108944 7.29815 82 42 37
-0.267055 -0.106455 7.34987 102 66 62
0.0965249 -0.373439 5.49561 94 58 50
0.0889789 -0.349215 5.61367 139 122 114
-0.360415 -0.103308 7.35053 94 56 46
-0.162775 -0.410455 5.56575 132 112 91
-0.358718 -0.0929806 7.38136 54 20 14
0.0809792 -0.337766 5.55759 98 77 70
-0.226889 -0.315623 5.99822 77 59 36
0.0191618 -0.230765 6.10674 97 58 47
-0.00405042 -0.209159 6.21694 76 36 24
-0.250418 -0.298047 6.06746 72 52 27
-0.242026 -0.13496 6.82261 86 42 38
0.0685852 -0.323381 5.61327 96 62 52
0.0666376 -0.313132 5.66403 140 120 114
-0.223861 -0.306516 5.95991 76 56 29
-0.132386 -0.200469 6.29666 99 52 47
-0.259284 -0.0752528 6.94627 96 48 41
-0.0234149 -0.203821 6.13152 81 42 34
0.0675808 -0.33059 5.51947 154 138 132
-0.218281 -0.298902 5.90516 71 50 28
0.0540651 -0.311828 5.58376 148 132 124
-0.218847 -0.29527 5.90338 68 58 32
