ply
format ascii 1.0
element vertex 1243
property float x
property float y
property float z
property uchar red
property uchar green
property uchar blue
end_header
0.301229 -0.531772 -7.7283 242 196 218
0.336981 -0.529599 -7.67674 220 195 198
0.191606 -0.520194 -7.74098 246 196 160
0.345076 -0.491184 -7.68238 220 194 196
0.536092 -0.496519 -7.55428 158 154 108
0.246118 -0.489431 -7.77934 184 36 60
0.166814 -0.466054 -7.75116 213 144 113
0.276166 -0.46405 -7.75239 227 242 244
0.300066 -0.466061 -7.74685 164 59 75
0.497232 -0.463617 -7.56507 186 157 45
0.194187 -0.454073 -7.76415 200 54 63
0.20341 -0.452813 -7.75985 194 58 52
0.36194 -0.45074 -7.61392 98 76 26
0.158262 -0.441912 -7.7394 130 58 32
0.2412 -0.448098 -7.73613 182 120 125
0.27771 -0.439214 -7.68003 128 108 52
0.440378 -0.441559 -7.59382 176 143 34
0.643755 -0.373133 -7.50551 218 196 108
0.369022 -0.297807 -7.59048 164 90 24
0.5108 -0.302255 -7.60543 230 218 198
0.502269 -0.289602 -7.59398 97 62 77
0.650384 -0.277887 -7.52387 245 208 76
0.319815 -0.254144 -7.58523 117 58 31
0.517305 -0.263537 -7.59383 166 110 0
0.511662 -0.259928 -7.60742 220 197 78
0.506619 -0.247425 -7.60877 84 44 0
0.336427 -0.151455 -7.56199 141 108 26
0.674769 -0.121368 -7.51514 132 99 4
0.707526 -0.0347199 -7.48394 90 43 2
0.294881 0.0221522 -7.45898 161 108 20
0.302126 0.0191587 -7.47464 103 59 7
0.359449 0.0264547 -7.51656 80 40 2
0.425121 0.0197571 -7.54974 118 83 14
0.414362 0.0272119 -7.53586 71 36 3
0.526235 0.0052238 -7.5779 200 162 49
0.420404 -0.881586 -7.51155 216 92 124
0.4115 -0.859824 -7.55829 140 18 35
0.317054 -0.840097 -7.5564 110 11 3
0.460283 -0.782769 -7.55053 203 210 200
0.35448 -0.749538 -7.60587 141 122 71
0.385682 -0.753174 -7.6256 144 146 144
0.261687 -0.709576 -7.43299 166 162 140
0.486317 -0.689228 -7.58804 178 188 188
0.241031 -0.591901 -7.69237 210 200 184
0.204755 -0.581816 -7.71087 222 168 152
0.271016 -0.575664 -7.72595 180 124 132
0.193285 -0.563251 -7.7343 217 182 162
0.202837 -0.563343 -7.75766 194 127 124
0.264626 -0.555844 -7.73354 176 90 105
0.11494 -0.526365 -7.66969 193 156 151
0.278224 -0.539352 -7.74117 210 152 168
0.174828 -0.522322 -7.74068 201 145 118
0.289224 -0.533486 -7.72948 226 174 196
0.194248 -0.523564 -7.75107 236 204 172
0.336625 -0.53018 -7.67602 220 195 198
0.135339 -0.494898 -7.72097 176 82 50
0.530406 -0.498901 -7.52793 226 236 238
0.344442 -0.494054 -7.68635 232 206 213
0.240699 -0.487779 -7.76446 194 24 46
0.291517 -0.482685 -7.74186 197 34 80
0.109892 -0.45693 -7.68437 194 148 142
0.165058 -0.467694 -7.75142 186 148 103
0.119042 -0.455718 -7.70344 141 52 45
0.295942 -0.465946 -7.70255 216 156 180
0.203791 -0.455141 -7.76687 168 29 24
0.36693 -0.449885 -7.58895 109 88 52
0.160348 -0.445262 -7.74362 175 88 64
0.242824 -0.456365 -7.76067 214 180 183
0.280517 -0.446058 -7.73654 128 108 52
0.438951 -0.443877 -7.59777 182 160 90
0.366311 -0.336543 -7.59816 142 98 33
0.368295 -0.298686 -7.58837 154 80 18
0.646724 -0.275625 -7.51151 221 180 92
0.243921 -0.237227 -7.59441 106 65 0
0.337935 -0.162794 -7.56171 206 191 77
0.69134 -0.116766 -7.50702 208 194 152
0.302926 0.0170757 -7.47842 104 60 2
0.520492 0.00653043 -7.57506 191 150 43
0.329875 -0.915769 -7.5271 186 76 26
0.355096 -0.748618 -7.60696 130 113 74
0.382588 -0.673305 -7.62145 178 180 166
0.402304 -0.676057 -7.62832 143 100 100
0.239824 -0.590137 -7.69588 220 202 187
0.26442 -0.565694 -7.74316 200 142 147
0.275911 -0.538131 -7.7291 170 92 110
0.29003 -0.535533 -7.73211 247 218 236
0.193309 -0.522914 -7.75309 238 203 172
0.139783 -0.485736 -7.72855 180 150 104
0.344208 -0.49675 -7.68996 223 211 218
0.259206 -0.491699 -7.78139 212 168 172
0.264781 -0.489377 -7.75216 227 201 213
0.295106 -0.484166 -7.74461 196 22 66
0.241092 -0.475152 -7.77213 145 63 76
0.285976 -0.46768 -7.75096 236 244 246
0.194695 -0.456467 -7.75964 186 42 50
0.203108 -0.454398 -7.7717 153 12 11
0.241154 -0.454774 -7.75539 221 177 183
0.199523 -0.426164 -7.66755 180 159 153
0.366974 -0.334559 -7.59281 116 70 27
0.493476 -0.343711 -7.60608 82 34 12
0.368009 -0.299024 -7.59016 164 86 13
0.380022 -0.240356 -7.58649 50 13 0
0.65838 -0.247041 -7.51396 204 155 42
0.721054 -0.189695 -7.46227 213 199 155
0.711336 -0.0359385 -7.48019 127 84 30
0.358562 0.0255649 -7.52376 80 42 0
0.418237 0.0224359 -7.54522 108 76 22
0.434116 0.0128712 -7.57581 190 143 26
0.274521 -1.38884 -7.45522 152 40 36
0.452179 -0.853188 -7.53099 162 162 167
0.460259 -0.782268 -7.55862 222 228 220
0.354544 -0.750576 -7.60648 140 122 68
0.402431 -0.677965 -7.62717 166 132 130
0.485745 -0.681237 -7.59286 158 169 173
0.253495 -0.594601 -7.6689 173 76 70
0.261585 -0.558412 -7.55998 214 180 184
0.19206 -0.562889 -7.73319 192 142 124
0.266566 -0.555422 -7.73938 228 184 196
0.119755 -0.529258 -7.68481 177 124 118
0.306883 -0.541591 -7.71842 228 240 243
0.183215 -0.523096 -7.73321 204 193 155
0.343718 -0.497793 -7.68113 228 210 220
0.238132 -0.487508 -7.76683 191 15 32
0.257212 -0.490758 -7.77188 218 180 184
0.241858 -0.47375 -7.76729 169 86 98
0.196372 -0.453818 -7.75341 200 58 63
0.637288 -0.372136 -7.51677 212 186 55
0.48305 -0.355855 -7.59983 91 59 10
0.491008 -0.345721 -7.59619 76 32 12
0.510187 -0.302294 -7.60886 228 214 194
0.641416 -0.277979 -7.53593 221 182 92
0.245097 -0.239065 -7.59968 108 66 0
0.51781 -0.260732 -7.60521 225 198 62
0.503935 -0.248225 -7.60351 73 26 2
0.386585 -0.229859 -7.58215 62 24 6
0.399486 -0.220104 -7.57974 56 18 0
0.489703 -0.231571 -7.60156 64 20 1
0.666589 -0.202547 -7.52227 82 61 6
0.718215 -0.186738 -7.45106 217 204 156
0.33331 -0.164871 -7.56949 176 200 161
0.669612 -0.15756 -7.52064 216 203 145
0.710102 -0.0358156 -7.48592 94 48 8
0.356984 0.0270568 -7.51936 87 50 4
0.294866 -0.828982 -7.54182 74 36 20
0.340472 -0.834928 -7.55322 200 180 132
0.401125 -0.832523 -7.58138 51 50 54
0.25468 -0.596159 -7.67143 175 98 92
0.305023 -0.543909 -7.71522 226 236 237
0.175277 -0.529519 -7.73677 200 184 150
0.287119 -0.510312 -7.71865 211 122 169
0.293402 -0.488036 -7.72346 213 49 94
0.243283 -0.477439 -7.78066 134 48 64
0.363989 -0.454604 -7.58945 124 104 56
0.200555 -0.423553 -7.64268 168 136 128
0.410482 -0.428671 -7.59599 164 132 6
0.34387 -0.342573 -7.57617 172 135 3
0.483938 -0.354977 -7.58507 80 49 20
0.65739 -0.284717 -7.51836 212 97 4
0.217385 -0.241248 -7.55777 171 138 50
0.499819 -0.243566 -7.60457 65 14 4
0.673065 -0.236529 -7.50155 235 208 104
0.399079 -0.224316 -7.58262 46 12 2
0.248996 -1.36672 -7.42901 214 195 202
0.320787 -0.841736 -7.53956 122 10 4
0.372302 -0.767499 -7.61817 204 167 146
0.37738 -0.747638 -7.60936 116 112 114
0.264316 -0.719846 -7.47361 167 158 122
0.260816 -0.668611 -7.58238 164 155 125
0.173569 -0.58532 -7.68291 161 86 86
0.207013 -0.587705 -7.68806 192 188 160
0.169171 -0.545161 -7.72886 197 168 146
0.316659 -0.542253 -7.53841 190 68 86
0.184569 -0.524382 -7.70696 193 190 156
0.337755 -0.522285 -7.71747 172 133 146
0.281544 -0.506875 -7.72591 210 118 162
0.110371 -0.462289 -7.64933 148 67 54
0.155758 -0.475438 -7.74496 175 151 94
0.518748 -0.259141 -7.6074 224 201 56
0.385688 -0.237439 -7.59389 74 37 8
0.348854 0.0377966 -7.46349 90 52 6
0.409171 -0.856654 -7.50691 159 101 102
0.481563 -0.860147 -7.48895 126 60 87
0.407056 -0.669668 -7.62012 195 186 178
0.193629 -0.587954 -7.67968 212 166 153
0.19574 -0.564911 -7.73552 211 158 145
0.136432 -0.486886 -7.71425 190 150 110
0.28301 -0.484536 -7.75974 208 141 168
0.295441 -0.467152 -7.73944 242 168 198
0.156016 -0.446953 -7.74833 194 140 104
0.202696 -0.452065 -7.75889 144 0 2
0.159761 -0.443338 -7.74757 118 39 22
0.319534 -0.254159 -7.58565 118 59 24
0.669753 -0.155544 -7.51855 242 235 192
0.677909 -0.130075 -7.52079 230 211 170
0.302696 0.0254302 -7.47119 75 30 0
0.360484 0.021123 -7.52432 98 58 3
0.595103 0.000606536 -7.53392 205 170 83
0.262121 -0.823926 -7.47602 140 25 14
0.275359 -0.826893 -7.47884 133 78 42
0.287051 -0.462503 -7.69409 241 244 246
0.511247 -0.259437 -7.60602 215 191 78
0.674056 -0.133344 -7.51495 203 184 126
0.673991 -0.124516 -7.52188 120 90 9
0.709355 -0.0467665 -7.4916 233 199 83
0.497228 -0.864202 -7.49003 164 64 95
0.133318 -0.493898 -7.70582 168 63 40
0.290129 -0.506238 -7.73211 221 128 174
0.264807 -0.491526 -7.75353 212 164 179
0.284844 -0.480407 -7.73468 240 206 226
0.434417 -0.437704 -7.59479 182 144 23
0.34517 -0.330969 -7.58345 196 130 10
0.372436 -0.241941 -7.58135 172 138 16
0.662253 -0.227485 -7.52716 214 180 56
0.681166 -0.193538 -7.50225 214 196 144
0.631525 -0.0113589 -7.53871 134 92 13
0.154508 -0.5791 -7.69933 167 114 112
0.151989 -0.56744 -7.69175 201 175 142
0.211647 -0.54266 -7.74748 237 214 206
0.25651 -0.491139 -7.76801 220 181 186
0.241055 -0.47629 -7.77315 137 37 57
0.434365 -0.440403 -7.60192 198 166 63
0.709213 -0.0414578 -7.47846 222 188 54
0.358848 0.0277626 -7.52046 78 42 0
0.428199 0.0196101 -7.55296 153 110 36
0.319389 -0.83819 -7.55773 159 102 64
0.38622 -0.74839 -7.60657 126 129 126
0.210695 -0.541471 -7.76131 245 213 205
0.206642 -0.533694 -7.76506 244 203 192
0.179081 -0.524264 -7.75418 226 190 156
0.239105 -0.487035 -7.76927 187 21 49
0.322046 -0.254501 -7.59083 130 54 12
0.490935 -0.229806 -7.59685 80 39 0
0.296186 -0.828959 -7.53905 47 18 4
0.28944 -0.508402 -7.71741 222 134 178
0.241668 -0.45692 -7.74448 176 101 111
0.652669 -0.375392 -7.49341 133 90 34
0.47143 -0.362809 -7.60355 134 101 30
0.382012 -0.242113 -7.58788 50 8 3
0.324138 -0.818609 -7.55047 72 59 46
0.262051 -0.72154 -7.45114 176 172 154
0.210322 -0.543986 -7.73796 230 214 206
0.345608 -0.497788 -7.6689 209 196 202
0.4719 -0.3637 -7.6112 88 57 6
0.503129 -0.252839 -7.60664 72 26 8
0.299021 -0.152749 -7.59173 172 186 159
0.671919 -0.154865 -7.50002 226 210 132
0.354117 0.0285868 -7.50776 94 55 0
0.492893 -0.872312 -7.49006 181 44 75
0.188739 -0.558079 -7.70357 210 194 167
0.316188 -0.523049 -7.7175 198 48 78
0.341939 -0.501753 -7.69386 190 148 160
0.346871 -0.34337 -7.57104 177 143 2
0.714731 -0.33905 -7.46825 159 140 116
0.322469 -0.257372 -7.57736 136 63 22
0.708496 -0.0396828 -7.4973 118 72 20
0.315346 -1.36019 -7.46183 136 52 66
0.27686 -1.31435 -7.47251 180 80 75
0.330916 -0.824608 -7.58017 86 75 50
0.393961 -0.749686 -7.61147 182 182 168
0.372237 -0.668384 -7.63454 193 164 146
0.378784 -0.237687 -7.58682 74 38 6
0.333757 -0.816878 -7.57732 43 31 18
0.367722 -0.673632 -7.6263 170 148 116
0.178245 -0.521907 -7.75078 228 176 144
0.360016 0.0225757 -7.52124 86 44 1
0.194682 -0.586278 -7.67929 212 158 144
0.182994 -0.518624 -7.73269 208 150 115
0.290424 -0.457877 -7.72504 186 150 155
0.38507 -0.291623 -7.59687 90 62 58
0.2076 -0.555042 -7.74524 226 178 171
0.660986 -0.275663 -7.51109 157 86 12
0.163164 -0.467625 -7.74636 196 152 122
0.518002 0.0116654 -7.56884 116 72 5
0.193805 -0.561483 -7.73423 206 170 146
0.651445 -0.38123 -7.49661 188 137 25
0.729939 -0.317448 -7.40803 150 123 86
0.359568 -0.24529 -7.5865 174 134 5
0.48704 -0.235363 -7.60465 68 24 3
0.340611 -0.153459 -7.57708 172 124 6
0.630098 -0.266708 -7.51634 221 176 8
0.265577 -1.38879 -7.44963 170 100 102
0.477583 -0.759827 -7.56445 190 194 173
0.377996 -0.742555 -7.61907 110 110 102
0.604437 -0.365655 -7.55386 200 154 38
0.258772 -1.36126 -7.4463 167 50 44
0.155682 -0.568273 -7.69605 220 160 138
0.241642 -0.485097 -7.77209 182 25 58
0.126864 -0.457163 -7.7179 168 110 80
0.504163 -0.282552 -7.60732 171 102 46
0.651718 -0.0272845 -7.5568 142 104 17
0.403236 -0.82398 -7.58166 62 61 66
0.388718 -0.671823 -7.63309 205 193 190
0.116046 -0.523555 -7.64625 178 120 114
0.309596 -0.533009 -7.71842 250 212 227
0.286241 -0.45919 -7.67933 238 248 250
0.670795 -0.199167 -7.51659 98 76 14
0.305167 0.0272718 -7.46166 74 32 0
0.659566 -0.279153 -7.51355 182 99 20
0.658583 -0.249505 -7.51835 164 114 24
0.413111 0.0239936 -7.54771 132 95 36
0.262553 -1.38535 -7.45495 226 198 202
0.252592 -1.36597 -7.44467 220 183 191
0.256349 -0.817922 -7.47659 137 47 29
0.171689 -0.553939 -7.74306 130 64 52
0.192366 -0.507393 -7.71479 204 87 33
0.514388 -0.258766 -7.60897 225 203 82
0.684216 -0.195451 -7.50875 228 208 156
0.426668 0.0214961 -7.5437 112 70 11
0.263154 -0.719134 -7.45278 167 160 130
0.209426 -0.54454 -7.74796 232 213 204
0.255745 -0.821891 -7.46043 143 34 21
0.195139 -0.456133 -7.74715 179 32 35
0.640937 -0.278138 -7.53305 204 152 56
0.396871 -0.83333 -7.57249 134 132 127
0.486815 -0.473599 -7.58873 215 193 108
0.658574 -0.213176 -7.52942 98 62 4
0.279908 -1.3573 -7.47778 199 58 50
0.493142 -0.864154 -7.48068 146 38 71
0.461689 -0.781913 -7.56302 144 147 134
0.259914 -0.71026 -7.45221 167 165 144
0.567159 -0.629222 -7.48224 132 136 132
0.275189 -0.575856 -7.70715 216 184 184
0.309284 -0.533331 -7.71527 228 162 182
0.288342 -0.507293 -7.71998 230 150 196
0.537594 -0.494724 -7.55265 156 144 59
0.24323 -0.485662 -7.76728 158 22 55
0.319722 -0.448092 -7.54379 75 44 6
0.289544 -0.450271 -7.61458 144 66 76
0.239512 -0.456836 -7.76333 184 112 118
0.244832 -0.452786 -7.77931 211 188 188
0.650645 -0.382507 -7.52716 118 72 2
0.274443 -0.314058 -7.63554 124 173 178
0.503772 -0.301273 -7.61332 140 127 142
0.517071 -0.264674 -7.59612 168 116 6
0.679241 -0.196195 -7.51271 220 201 142
0.335542 -0.170834 -7.54223 154 134 12
0.673162 -0.190648 -7.51722 112 104 70
0.35031 -0.14812 -7.55376 148 100 0
0.672958 -0.134602 -7.5272 198 176 116
0.543092 0.00640079 -7.55771 186 156 102
0.500571 -0.863551 -7.48498 164 76 102
0.470858 -0.856178 -7.52343 185 157 175
0.318035 -0.839509 -7.57353 118 42 18
0.271647 -0.820024 -7.48233 144 108 58
0.26557 -0.710942 -7.55599 172 170 151
0.517971 -0.732151 -7.61783 150 160 169
0.36248 -0.671063 -7.62691 134 94 70
0.250733 -0.598166 -7.59647 206 179 174
0.244503 -0.590739 -7.68259 232 198 189
0.316851 -0.564311 -7.63475 211 131 130
0.311729 -0.549965 -7.72472 222 184 192
0.133813 -0.493966 -7.7139 183 94 68
0.13688 -0.485195 -7.71461 192 153 112
0.260635 -0.495262 -7.72815 184 58 79
0.273522 -0.431831 -7.57053 136 120 71
0.36951 -0.300164 -7.59162 144 72 14
0.673716 -0.194972 -7.50985 96 84 28
0.487545 0.0182028 -7.56121 102 56 0
0.368569 -0.666159 -7.62153 118 81 48
0.566406 -0.629338 -7.48355 161 168 166
0.189457 -0.59196 -7.7194 158 94 95
0.172011 -0.520727 -7.73424 190 110 94
0.136358 -0.484851 -7.72232 180 134 98
0.529943 -0.502456 -7.56615 249 254 252
0.118517 -0.446504 -7.68159 121 65 56
0.368396 -0.447602 -7.57928 96 75 29
0.611367 -0.281695 -7.52447 252 152 96
0.502078 -0.282418 -7.61205 118 60 38
0.247496 -0.237862 -7.59648 107 69 1
0.658388 -0.21021 -7.51988 194 168 50
0.724965 -0.189382 -7.45609 220 202 152
0.671879 -0.190874 -7.51305 190 184 146
0.663864 -0.169294 -7.52222 210 164 20
0.669021 -0.154943 -7.51587 211 196 127
0.68201 -0.112714 -7.50441 146 110 1
0.690617 -0.0334952 -7.49891 217 188 40
0.300166 -1.30904 -7.48687 170 30 26
0.516621 -0.734111 -7.61915 176 184 192
0.483325 -0.682087 -7.59062 172 182 185
0.247685 -0.600316 -7.58042 186 184 188
0.182669 -0.588616 -7.66223 168 98 104
0.19843 -0.587341 -7.68173 198 186 158
0.308503 -0.566958 -7.58039 212 147 146
0.287464 -0.506424 -7.68967 214 126 173
0.266249 -0.49028 -7.74762 216 180 194
0.165898 -0.461205 -7.76341 188 139 99
0.287892 -0.467745 -7.74865 236 250 250
0.242629 -0.304926 -7.62103 157 158 106
0.268959 -0.279409 -7.63499 166 190 180
0.503888 -0.245001 -7.59302 74 24 0
0.394731 -0.224886 -7.59263 66 24 1
0.657392 -0.213643 -7.52901 210 180 49
0.334455 -0.174928 -7.55959 158 145 48
0.663824 -0.191251 -7.51536 216 204 107
0.334558 -0.151496 -7.57613 186 162 90
0.66583 -0.138179 -7.48989 210 158 7
0.272598 -1.39123 -7.45784 208 146 148
0.397837 -0.857216 -7.56297 206 128 124
0.272388 -0.818176 -7.50263 156 133 82
0.248372 -0.596064 -7.67584 156 90 91
0.180183 -0.584583 -7.63536 172 86 92
0.174355 -0.525382 -7.74774 212 178 149
0.335974 -0.526539 -7.67682 196 164 172
0.529488 -0.498176 -7.53869 206 218 221
0.119615 -0.455447 -7.70635 140 58 44
0.281727 -0.447942 -7.74489 132 116 57
0.243869 -0.301686 -7.60105 198 204 161
0.245844 -0.2402 -7.60375 112 70 0
0.305989 0.0268868 -7.46524 76 36 0
0.493759 -0.868448 -7.49552 188 56 86
0.250872 -0.607014 -7.62732 183 186 190
0.182676 -0.588666 -7.68794 172 105 111
0.206878 -0.583605 -7.72438 232 191 175
0.167343 -0.545807 -7.74442 137 82 68
0.277425 -0.540766 -7.73507 250 215 230
0.289374 -0.480067 -7.86472 236 243 246
0.323425 -0.454681 -7.60913 78 45 10
0.165012 -0.448549 -7.74315 146 27 16
0.364817 -0.452105 -7.59758 110 90 40
0.203932 -0.424239 -7.65914 180 170 164
0.659401 -0.282336 -7.51558 196 98 4
0.451613 -0.851324 -7.53058 159 157 160
0.486124 -0.683236 -7.60265 164 174 180
0.233324 -0.590091 -7.70055 208 208 186
0.265837 -0.566634 -7.73526 220 183 188
0.339253 -0.526376 -7.69523 219 197 202
0.140631 -0.48528 -7.72828 182 136 97
0.160914 -0.477303 -7.75971 199 151 108
0.243835 -0.464698 -7.77263 201 160 168
0.279811 -0.443474 -7.70485 130 114 56
0.367616 -0.333039 -7.59517 102 52 10
0.317539 -0.155022 -7.59097 176 208 190
0.32605 -0.926811 -7.50752 188 79 29
0.258779 -0.591152 -7.65749 184 68 64
0.361731 -0.455355 -7.58702 126 105 46
0.354079 -0.24512 -7.59144 172 127 4
0.670872 -0.24449 -7.53242 240 214 107
0.317797 -1.02601 -7.53721 226 134 70
0.484129 -0.861236 -7.4548 232 193 216
0.318216 -0.565625 -7.65165 209 147 146
0.335021 -0.529342 -7.65986 212 186 192
0.352126 -0.497367 -7.65979 186 182 166
0.237334 -0.451757 -7.75384 140 38 42
0.175312 -0.445494 -7.77061 118 18 2
0.659327 -0.246448 -7.5217 118 76 2
0.673443 -0.197107 -7.51356 125 110 56
0.327566 -1.12075 -7.54604 196 56 56
0.156087 -0.575793 -7.67464 162 101 91
0.276549 -0.536765 -7.73118 211 154 176
0.283659 -0.45689 -7.7383 218 214 206
0.243906 -0.450091 -7.76169 206 182 180
0.665105 -0.204507 -7.51631 88 60 2
0.764369 -0.0687522 -7.38325 132 86 12
0.271384 -1.39265 -7.44884 174 102 98
0.154586 -0.575454 -7.67262 158 96 88
0.18812 -0.563387 -7.71335 166 104 88
0.293795 -0.508127 -7.71454 216 114 156
0.180916 -0.446677 -7.76283 203 84 84
0.190418 -0.440491 -7.7716 134 59 54
0.473127 -0.362082 -7.60062 82 50 7
0.333867 -0.174197 -7.55619 152 144 57
0.664838 -0.193324 -7.51156 214 207 125
0.712089 -0.0368621 -7.49004 84 36 1
0.271967 -1.39221 -7.44794 180 106 102
0.257565 -0.565047 -7.51885 182 124 131
0.238541 -0.559751 -7.61327 158 70 80
0.309477 -0.541757 -7.71662 244 239 244
0.296248 -0.530547 -7.71988 240 204 226
0.495458 -0.4669 -7.57183 198 168 40
0.653563 -0.373746 -7.47066 150 108 42
0.66874 -0.151661 -7.48808 212 191 102
0.675161 -0.126988 -7.47794 194 169 108
0.680245 -0.114986 -7.5067 132 96 0
0.285892 -1.39021 -7.46187 160 66 70
0.460898 -0.780889 -7.56506 158 164 155
0.134528 -0.496258 -7.7222 182 87 54
0.16563 -0.468482 -7.76842 181 150 103
0.491847 -0.469276 -7.58154 201 168 28
0.226755 -0.448351 -7.72655 182 10 21
0.365275 -0.449089 -7.58141 100 81 37
0.66421 -0.137059 -7.49829 196 143 4
0.435116 -0.88528 -7.4935 210 92 131
0.12233 -0.45645 -7.71792 136 76 62
0.235362 -0.451635 -7.74043 188 77 84
0.375278 -0.345278 -7.60866 59 30 8
0.762165 -0.0582553 -7.37519 128 84 13
0.421326 0.0206285 -7.5479 147 112 40
0.328076 -0.920893 -7.51911 196 88 42
0.459019 -0.781735 -7.5761 192 198 188
0.328929 -0.550972 -7.66507 172 72 80
0.529315 -0.504048 -7.55956 203 215 218
0.634995 -0.375502 -7.50587 220 193 22
0.709431 -0.0426956 -7.49992 180 140 61
0.429772 0.00462038 -7.60779 138 96 20
0.175903 -0.597357 -7.81465 190 158 152
0.490821 -0.343606 -7.59373 80 34 17
0.529747 0.00770072 -7.56619 188 148 48
0.237379 -0.599818 -7.66558 162 123 127
0.238745 -0.447834 -7.74803 177 116 118
0.188378 -0.437052 -7.75499 138 80 69
0.301357 -0.326203 -7.5959 116 68 32
0.368683 -0.290027 -7.58324 85 28 2
0.659573 -0.209871 -7.51733 143 114 22
0.355351 -1.0112 -7.55671 199 71 66
0.166633 -0.543958 -7.74499 151 101 85
0.264848 -0.555226 -7.73402 174 90 108
0.437829 -0.443829 -7.60215 189 162 88
0.283663 0.0345774 -7.39424 144 93 10
0.173428 -0.526962 -7.74327 218 181 153
0.495295 -0.86694 -7.50024 188 50 84
0.184245 -0.586079 -7.683 170 83 92
0.193574 -0.50556 -7.71398 209 78 35
0.235715 -0.488017 -7.78593 183 6 26
0.647428 -0.278769 -7.52378 234 198 90
0.414471 -0.857816 -7.54248 158 74 84
0.348794 -0.6689 -7.62416 191 182 167
0.367277 -0.283015 -7.59432 173 84 29
0.240074 -0.455966 -7.76079 190 125 132
0.664016 -0.204374 -7.51664 94 71 7
0.229859 -0.484989 -7.70346 207 103 116
0.164096 -0.448163 -7.74529 152 38 34
0.301786 0.0238923 -7.47391 80 38 2
0.252784 -0.488876 -7.74963 193 102 123
0.381881 -0.245417 -7.58492 56 14 6
0.487927 -0.858303 -7.51156 230 202 218
0.290497 -1.39558 -7.44692 161 96 107
0.278012 -1.32004 -7.45919 180 79 60
0.305755 -0.530758 -7.72349 246 188 210
0.280921 -1.34765 -7.47068 178 48 38
0.498373 -0.863475 -7.48265 172 66 98
0.530039 -0.50159 -7.56548 190 194 184
0.40833 -0.434976 -7.62191 171 138 11
0.169415 -0.550541 -7.72707 125 64 58
0.285847 -0.459739 -7.75743 232 222 208
0.397198 -0.831086 -7.54155 106 104 100
0.23627 -0.455624 -7.77566 170 22 36
0.254275 -0.591623 -7.6428 183 66 69
0.287083 -0.504058 -7.70712 222 139 184
0.656649 -0.213277 -7.52528 204 173 44
0.343667 -0.152948 -7.57145 169 124 2
0.256199 -0.82146 -7.47969 148 58 48
0.155864 -0.580122 -7.66469 200 155 156
0.28174 -0.444631 -7.73728 146 140 93
0.320991 -0.522896 -7.70092 200 42 80
0.277021 -1.25406 -7.52108 162 50 34
0.376183 -0.883834 -7.54443 218 66 54
0.454621 -0.861057 -7.52954 167 100 110
0.284058 -0.804544 -7.51574 205 200 145
0.361067 -0.746855 -7.61909 98 86 67
0.408294 -0.747735 -7.61199 184 186 176
0.519498 -0.732963 -7.6057 136 147 160
0.190639 -0.565351 -7.73881 188 140 122
0.166184 -0.53653 -7.73377 182 124 98
0.17683 -0.521986 -7.74423 225 162 136
0.183624 -0.513521 -7.71214 158 45 12
0.135579 -0.495694 -7.72625 191 106 73
0.132258 -0.48758 -7.71994 135 44 24
0.490844 -0.470309 -7.59077 178 144 5
0.12384 -0.448923 -7.7132 96 41 15
0.276287 -0.464382 -7.75361 234 248 247
0.24018 -0.45864 -7.78127 202 138 146
0.22551 -0.448649 -7.77933 167 80 76
0.65171 -0.376032 -7.51274 95 52 3
0.219516 -0.328648 -7.4418 116 87 18
0.26514 -0.289374 -7.63828 129 144 122
0.252506 -0.266981 -7.62269 116 96 33
0.668776 -0.202518 -7.50505 74 50 0
0.662503 -0.198601 -7.5158 215 206 129
0.673456 -0.142413 -7.5112 178 155 106
0.74732 -0.0527884 -7.42484 111 68 4
0.362521 -0.876713 -7.59215 198 40 42
0.439815 -0.861039 -7.50394 172 102 115
0.449792 -0.860243 -7.54499 148 54 70
0.463198 -0.861274 -7.50612 145 76 88
0.475495 -0.857577 -7.50134 215 202 218
0.331822 -0.822476 -7.57542 52 42 20
0.368141 -0.66728 -7.62349 130 86 56
0.195137 -0.587683 -7.66828 207 170 154
0.189992 -0.565155 -7.73554 174 122 106
0.311288 -0.547677 -7.72843 196 134 148
0.249129 -0.481888 -7.77131 223 204 208
0.299159 -0.462108 -7.73321 168 56 72
0.292984 -0.459305 -7.73762 177 122 110
0.239075 -0.450874 -7.76617 140 50 60
0.393206 -0.439016 -7.5944 107 94 58
0.383132 -0.355798 -7.59973 151 124 52
0.714022 -0.336345 -7.44681 156 130 90
0.513231 -0.259444 -7.59773 213 186 78
0.665077 -0.196502 -7.5128 215 206 129
0.665937 -0.166677 -7.50675 203 156 10
0.74038 -0.0500214 -7.44361 112 66 4
0.682581 -0.0267869 -7.51102 101 57 2
0.48653 -0.859755 -7.50484 129 51 81
0.289025 -0.827355 -7.52004 58 24 1
0.284268 -0.806779 -7.51207 192 186 132
0.23839 -0.700984 -7.60494 156 156 148
0.125914 -0.536253 -7.68626 190 154 122
0.120179 -0.526685 -7.64092 157 114 106
0.311106 -0.545735 -7.70738 234 206 215
0.311289 -0.538319 -7.72521 245 228 235
0.175251 -0.521319 -7.7316 207 134 111
0.345166 -0.492023 -7.68555 227 200 200
0.251764 -0.487274 -7.7629 168 102 115
0.290367 -0.466949 -7.7419 242 244 247
0.241372 -0.457318 -7.80283 214 184 187
0.71625 -0.335092 -7.43955 144 120 92
0.383867 -0.288418 -7.60639 82 45 50
0.6813 -0.11684 -7.50901 128 96 1
0.744357 -0.0510846 -7.43283 102 59 5
0.496406 -0.864466 -7.49352 168 64 96
0.259122 -0.70966 -7.48528 162 160 141
0.433153 -0.6746 -7.62012 163 163 151
0.382454 -0.660462 -7.62197 132 96 90
0.209754 -0.549955 -7.75474 238 206 197
0.115786 -0.529682 -7.69865 177 126 124
0.30964 -0.540038 -7.71915 229 236 240
0.180894 -0.525188 -7.7633 208 188 150
0.261472 -0.491986 -7.76143 198 151 164
0.489263 -0.471113 -7.57943 200 167 50
0.281455 -0.458979 -7.74176 219 226 222
0.375897 -0.288543 -7.6036 54 12 10
0.506095 -0.247589 -7.6045 80 33 2
0.655624 -0.229042 -7.5303 200 162 52
0.682222 -0.19346 -7.50354 196 174 108
0.499171 -0.865392 -7.46039 164 58 90
0.270851 -0.819005 -7.45487 149 116 75
0.374165 -0.755417 -7.61658 210 185 168
0.205454 -0.580125 -7.70268 212 138 124
0.217917 -0.580418 -7.70978 235 193 178
0.335395 -0.531746 -7.67597 219 180 186
0.164662 -0.468031 -7.74641 187 152 106
0.473173 -0.363814 -7.61037 102 68 12
0.494463 -0.343081 -7.59876 84 42 27
0.724452 -0.329102 -7.39611 155 130 93
0.743167 -0.0492739 -7.43267 142 102 26
0.267005 -1.38947 -7.46417 222 195 197
0.492615 -0.866195 -7.50028 176 52 87
0.191299 -0.591241 -7.63926 166 90 94
0.139745 -0.488871 -7.74565 185 152 107
0.161761 -0.474038 -7.74743 193 152 105
0.486921 -0.471841 -7.59903 176 144 4
0.423136 0.017701 -7.54936 165 126 32
0.322979 -0.823078 -7.58514 40 30 14
0.235738 -0.593425 -7.68087 204 195 176
0.191951 -0.562836 -7.7303 175 112 102
0.261322 -0.490983 -7.76688 228 206 214
0.319089 -0.482083 -7.75615 192 25 40
0.489494 -0.470314 -7.57056 203 172 58
0.170249 -0.451709 -7.73335 140 8 10
0.276341 -0.440884 -7.69226 130 103 42
0.645916 -0.38261 -7.52884 152 108 36
0.494028 -0.343419 -7.60733 96 45 14
0.367348 -0.261225 -7.58246 159 44 3
0.632171 -0.276755 -7.54986 227 194 45
0.387729 -0.23086 -7.57413 51 12 1
0.661787 -0.20889 -7.52204 73 48 2
0.330991 -0.167836 -7.58128 177 197 152
0.327898 -0.880144 -7.52687 178 36 14
0.247005 -0.532256 -7.7777 180 30 42
0.139916 -0.48498 -7.71539 186 148 106
0.474627 -0.475509 -7.63663 202 179 88
0.652803 -0.375175 -7.46673 205 160 38
0.647713 -0.292636 -7.52489 222 94 0
0.632232 -0.2706 -7.53608 226 198 4
0.237755 -0.232892 -7.58535 117 66 1
0.328628 -0.17012 -7.5874 171 204 186
0.276737 -1.3033 -7.48122 180 70 52
0.396432 -0.673719 -7.62454 226 189 196
0.28874 -0.456095 -7.72648 215 193 167
0.512874 -0.258765 -7.59666 220 195 92
0.291166 -1.39373 -7.44867 166 104 112
0.390025 -0.855179 -7.56257 158 63 74
0.498576 -0.861225 -7.48819 133 84 112
0.155048 -0.569471 -7.69035 216 166 142
0.267419 -0.570957 -7.71567 184 142 144
0.125139 -0.456861 -7.72093 138 69 36
0.659174 -0.247384 -7.51995 120 72 2
0.415645 -0.858546 -7.55949 138 30 46
0.250157 -0.315395 -7.61909 132 150 117
0.128379 -0.458182 -7.72542 175 138 91
0.425658 0.0134411 -7.5805 135 91 21
0.396441 -0.857927 -7.58376 164 72 82
0.336916 -0.83354 -7.55591 201 181 134
0.188561 -0.563662 -7.73492 184 140 120
0.211455 -0.545414 -7.75388 225 214 198
0.304272 0.02183 -7.46803 85 49 4
0.191993 -0.524061 -7.73284 228 200 168
0.382259 -0.354325 -7.60449 104 74 26
0.205146 -0.541379 -7.6794 209 211 184
0.659036 -0.212293 -7.53428 76 46 1
0.668024 -0.125923 -7.5308 179 144 6
0.166683 -0.544903 -7.73051 190 153 130
0.1345 -0.485224 -7.71163 156 90 59
0.275777 -1.31841 -7.45388 164 79 64
0.244773 -0.451908 -7.76646 208 178 182
0.493283 -0.355557 -7.60834 216 179 43
0.451042 -0.849335 -7.5339 184 190 184
0.186715 -0.593533 -7.71318 158 95 99
0.196075 -0.564347 -7.74138 198 148 136
0.212691 -0.54028 -7.75123 244 208 200
0.49392 -0.344732 -7.60344 94 48 24
0.165725 -0.541617 -7.73693 148 93 68
0.334806 -0.531069 -7.68414 192 148 152
0.140695 -0.487047 -7.72122 184 140 98
0.504057 -0.257024 -7.60914 78 32 12
0.282169 -0.807634 -7.52641 184 177 125
0.154175 -0.577379 -7.68179 168 124 123
0.386967 -0.228331 -7.58177 68 31 2
0.536701 -0.50023 -7.54968 167 168 144
0.656298 -0.374515 -7.48755 98 60 2
0.377846 -0.246254 -7.5909 92 48 21
0.329557 -0.921615 -7.52886 196 92 38
0.164028 -0.471959 -7.65051 195 150 106
0.28615 -0.467653 -7.72804 226 238 239
0.423702 0.0175531 -7.53908 183 139 16
0.279666 -0.805912 -7.5203 180 173 122
0.325554 -0.481597 -7.67181 192 9 36
0.281189 -0.473998 -7.76376 211 219 222
0.470883 -0.35905 -7.5825 146 118 32
0.442018 -0.881013 -7.56171 222 83 120
0.239166 -0.702745 -7.62031 158 159 145
0.242147 -0.594442 -7.59587 148 106 101
0.31287 -0.570569 -7.66753 201 130 126
0.169364 -0.53198 -7.75425 170 117 91
0.300251 -0.530987 -7.7283 205 128 154
0.529394 -0.508333 -7.5656 172 185 186
0.257318 -0.492798 -7.77872 220 186 192
0.246889 -0.480662 -7.76434 224 196 202
0.166534 -0.453906 -7.75415 130 10 3
0.308742 -0.45739 -7.69451 172 113 48
0.397141 -0.823072 -7.56175 150 147 136
0.583471 -0.555693 -7.49071 193 168 10
0.279389 -0.538488 -7.73927 215 159 174
0.151739 -0.486226 -7.74403 190 123 84
0.656387 -0.373322 -7.47879 116 74 4
0.294415 -1.39087 -7.45093 136 65 72
0.518105 -0.733069 -7.60394 156 165 176
0.244534 -0.590782 -7.55532 162 108 104
0.180447 -0.447113 -7.77012 156 42 40
0.192588 -0.399695 -7.44192 180 158 152
0.660064 -0.245904 -7.5129 142 92 8
0.665474 -0.203914 -7.52221 93 73 19
0.264217 -1.38653 -7.45455 228 192 195
0.237333 -0.698623 -7.55735 178 178 173
0.246806 -0.596888 -7.65731 162 116 111
0.250501 -0.484596 -7.75901 184 131 142
0.227841 -0.214364 -7.49001 130 82 0
0.333178 -0.178098 -7.56906 175 174 98
0.676289 -0.132204 -7.50446 207 188 132
0.709313 -0.050775 -7.49042 206 174 22
0.42064 0.018823 -7.54916 165 128 32
0.272401 -1.31169 -7.47059 133 36 24
0.296071 -0.82376 -7.62507 63 38 6
0.491418 -0.46599 -7.54946 181 150 18
0.364196 -0.450053 -7.58153 101 79 35
0.163039 -0.444432 -7.74115 132 33 18
0.329628 -0.24791 -7.59535 158 108 22
0.703952 -0.0441528 -7.52795 112 66 14
0.266808 -0.715099 -7.54264 166 157 122
0.156095 -0.578048 -7.66801 186 144 147
0.149572 -0.562184 -7.67507 201 172 137
0.263268 -0.550559 -7.47469 233 208 212
0.208719 -0.555613 -7.80116 222 207 190
0.292691 -0.485243 -7.7435 196 38 80
0.341529 -0.333531 -7.55779 166 128 1
0.688936 -0.194299 -7.49587 216 190 110
0.486694 -0.873695 -7.52573 190 50 80
0.288656 -0.662327 -7.56904 133 116 84
0.16252 -0.582191 -7.68765 188 136 139
0.472378 -0.370805 -7.62797 222 192 43
0.484952 -0.685509 -7.5953 174 182 183
0.188471 -0.53826 -7.51545 202 204 176
0.339285 -0.504484 -7.65898 178 124 138
0.16287 -0.445103 -7.65081 167 67 52
0.36213 -0.453808 -7.59447 123 101 49
0.285524 -0.506469 -7.73696 220 127 174
0.161287 -0.449975 -7.76138 190 100 78
0.656277 -0.272328 -7.50975 224 162 41
0.683041 -0.197197 -7.51309 228 204 143
0.662751 -0.205013 -7.5408 145 127 62
0.742514 -0.054312 -7.44299 106 62 2
0.276239 -1.30678 -7.47027 150 54 43
0.253168 -0.813813 -7.46061 130 71 54
0.290188 -0.532059 -7.73196 223 158 183
0.529668 -0.498764 -7.54476 232 240 232
0.184595 -0.587507 -7.68562 170 89 88
0.201474 -0.421442 -7.63129 184 172 162
0.348341 -0.14646 -7.55537 167 122 8
0.289984 -0.660414 -7.56808 134 118 85
0.219265 -0.437758 -7.75758 182 163 154
0.217437 -0.453904 -7.72617 174 8 12
0.398575 -0.222064 -7.5726 58 17 0
0.272206 -1.39368 -7.44919 160 83 76
0.289539 -1.39315 -7.46053 170 120 128
0.498073 -0.318802 -7.6106 104 38 14
0.498531 -0.86328 -7.48968 142 64 92
0.391443 -0.673092 -7.61779 200 190 186
0.654205 -0.0139484 -7.51903 94 59 0
0.276993 -0.821165 -7.51185 124 92 46
0.236653 -0.48816 -7.76207 185 13 32
0.660009 -0.2725 -7.52555 160 100 4
0.212952 -0.546424 -7.75145 248 210 196
0.587661 0.00402804 -7.51459 190 155 43
0.294692 -1.38867 -7.45846 138 52 64
0.637861 -0.373288 -7.49912 217 189 39
0.277258 -1.39698 -7.43105 169 86 78
0.320155 -0.82211 -7.56853 116 100 69
0.610332 0.000636112 -7.52223 159 122 42
0.376239 -0.7425 -7.62288 104 100 96
0.36276 -0.265134 -7.59813 178 61 6
0.670782 -0.188334 -7.50037 224 218 162
0.140915 -0.484591 -7.7094 158 106 64
0.684618 -0.192862 -7.50141 222 202 142
0.672085 -0.188962 -7.51489 143 134 92
0.650879 -0.0212553 -7.53694 114 78 4
0.657181 -0.212321 -7.52597 198 169 51
0.535023 -0.502301 -7.55744 165 164 141
0.355371 -0.254005 -7.61355 170 112 5
0.367821 -0.875913 -7.56538 201 32 49
0.675722 -0.188256 -7.47521 128 112 59
0.119087 -0.459074 -7.72076 120 34 30
0.669657 -0.13587 -7.49512 196 150 20
0.366515 -0.2594 -7.57802 168 53 6
0.275534 -0.567901 -7.67396 198 170 174
0.206489 -0.547877 -7.72532 212 210 188
0.167067 -0.54747 -7.73714 202 164 140
0.257991 -0.512277 -7.72928 186 32 30
0.137099 -0.49557 -7.72636 198 103 76
0.138581 -0.487553 -7.72829 187 152 112
0.125317 -0.456675 -7.71629 162 96 66
0.291296 -0.458159 -7.73869 221 190 156
0.206401 -0.453754 -7.76499 240 94 103
0.238837 -0.305595 -7.63306 134 123 52
0.280946 -0.517364 -7.736 226 116 154
0.187477 -0.504337 -7.76191 195 63 32
0.269053 -0.491496 -7.75199 194 150 172
0.181452 -0.446188 -7.76111 194 75 60
0.220994 -0.327823 -7.43304 110 66 20
0.358949 -0.246634 -7.57794 182 114 18
0.244368 -0.240753 -7.61012 116 82 19
0.724027 -0.190629 -7.45487 216 194 152
0.67468 -0.141585 -7.51275 187 161 110
0.311227 -0.536704 -7.7201 248 230 241
0.249776 -0.48281 -7.77252 232 210 215
0.675207 -0.186826 -7.49737 168 160 116
0.186358 -0.590535 -7.68241 174 100 102
0.206908 -0.557739 -7.74071 188 103 108
0.139285 -0.487856 -7.72324 163 112 77
0.238381 -0.452632 -7.76976 168 48 60
0.247306 -0.233675 -7.57054 130 86 24
0.500887 -0.239758 -7.60411 76 26 2
0.248132 -0.519114 -7.76626 188 34 45
0.119078 -0.452486 -7.71554 136 32 28
0.658383 -0.280948 -7.51431 200 109 16
0.66714 -0.19835 -7.52007 146 135 90
0.251191 -0.522362 -7.75455 180 32 42
0.120311 -0.452149 -7.70526 139 32 28
0.17037 -0.444871 -7.70861 154 26 16
0.506211 -0.24547 -7.60456 88 42 3
0.147918 -0.566747 -7.70072 192 178 141
0.284231 -0.468834 -7.76157 236 246 246
0.463835 -0.857151 -7.44213 122 104 110
0.160429 -0.579345 -7.6471 179 122 128
0.283907 -0.509396 -7.71413 216 113 152
0.304498 -0.48304 -7.74029 198 12 48
0.288167 -0.469288 -7.73188 219 232 232
0.337495 -0.328983 -7.56427 199 136 18
0.65927 -0.210096 -7.5242 92 63 12
0.342861 -0.156158 -7.56039 198 160 26
0.165626 -0.537347 -7.7418 172 102 79
0.331322 -0.482172 -7.71228 177 32 48
0.325756 -0.476284 -7.75067 164 104 72
0.659511 -0.249886 -7.52041 130 82 6
0.387894 -0.749665 -7.59602 132 133 128
0.156088 -0.57472 -7.66337 155 98 90
0.204511 -0.553975 -7.60859 170 117 104
0.180728 -0.446298 -7.75778 180 52 55
0.495707 -0.292544 -7.58222 65 32 44
0.665975 -0.145573 -7.52601 188 147 30
0.430076 -0.857151 -7.5459 203 178 176
0.268607 -0.557575 -7.70091 196 130 139
0.204795 -0.455456 -7.76419 202 60 62
0.658649 -0.280563 -7.51623 184 100 18
0.434716 -0.884736 -7.52778 208 101 141
0.280895 -0.485474 -7.76773 205 134 160
0.23509 -0.450679 -7.76385 172 48 62
0.243168 -0.235009 -7.5925 110 60 1
0.664617 -0.207086 -7.51356 98 70 14
0.427037 -0.85411 -7.55113 218 210 202
0.261499 -0.488543 -7.76156 234 226 236
0.384947 -0.29008 -7.59491 78 45 49
0.283449 -0.808133 -7.52739 186 178 123
0.274637 -0.547981 -7.73392 232 226 234
0.311364 -0.522316 -7.7224 198 42 78
0.632895 -0.276015 -7.52966 204 140 4
0.2664 -0.567273 -7.75147 221 220 217
0.0979459 -0.482798 -7.69567 188 174 178
0.263391 -0.437552 -7.75283 137 126 72
0.488871 -0.340421 -7.61594 84 49 54
0.484994 -0.859194 -7.50114 184 150 174
0.374102 -0.74419 -7.61931 96 92 88
0.668465 -0.155696 -7.51881 209 194 123
0.340956 -0.331594 -7.56646 177 131 6
0.372766 -0.283023 -7.57466 104 42 20
0.2123 -0.223713 -7.52371 132 92 2
0.665241 -0.204241 -7.51787 93 68 16
0.293471 -0.658588 -7.56121 134 119 82
0.299306 -1.38121 -7.46121 131 40 58
0.354761 -0.829224 -7.58193 194 176 134
0.668033 -0.202606 -7.52048 106 85 30
0.282675 -1.40014 -7.42177 206 154 156
0.389464 -0.439847 -7.57793 135 118 91
0.380924 -0.661669 -7.61813 116 73 71
0.403789 -0.828756 -7.57634 152 152 167
0.386382 -0.447688 -7.62096 138 124 92
0.518789 -0.263244 -7.59687 182 126 10
0.369865 -0.267792 -7.58914 119 20 0
0.405564 -0.219842 -7.5822 114 76 9
0.238043 -0.471019 -7.76343 152 32 48
0.277306 -0.822548 -7.52921 90 58 14
0.667162 -0.197068 -7.52516 140 126 80
0.179556 -0.402348 -7.45576 148 46 37
0.272429 -1.39389 -7.45305 204 146 150
0.21336 -0.222396 -7.5256 135 86 0
0.210037 -0.539315 -7.75329 237 218 204
0.306997 -0.471667 -7.73677 194 26 54
0.273049 -1.34717 -7.52571 204 64 58
0.355652 -1.01069 -7.55695 228 97 114
0.28995 -0.532577 -7.72906 235 178 200
0.29947 -0.463787 -7.74339 146 42 25
0.518437 -0.733693 -7.61268 126 133 148
0.293083 0.0199655 -7.46483 177 122 30
0.288545 -0.466437 -7.75122 242 240 236
0.468788 -0.86419 -7.58791 199 132 154
0.625162 -0.363849 -7.53335 246 176 50
0.249914 -0.486998 -7.76852 175 116 130
0.200616 -0.517878 -7.71456 170 46 32
0.285383 -0.486655 -7.74093 163 68 100
0.210646 -0.439969 -7.75827 156 112 93
0.154847 -0.574311 -7.65727 144 99 96
0.19519 -0.565984 -7.73797 194 126 120
0.197571 -0.518464 -7.74263 170 52 41
0.137572 -0.486523 -7.69276 130 39 18
0.206798 -0.453734 -7.76005 225 85 90
0.244051 -0.454996 -7.7687 226 191 194
0.210247 -0.448011 -7.77297 171 15 23
0.18998 -0.564535 -7.73836 187 137 122
0.187696 -0.503025 -7.74583 195 67 27
0.212009 -0.446122 -7.78775 138 36 36
0.495186 -0.866417 -7.48236 170 56 84
0.287815 -0.535832 -7.74332 243 209 222
0.280993 -0.517355 -7.72774 223 108 144
0.27383 -0.492825 -7.79601 189 90 130
0.703595 -0.037918 -7.50154 132 86 20
0.16545 -0.466048 -7.7533 193 150 116
0.162059 -0.445233 -7.76073 141 30 14
0.312597 -0.465293 -7.70069 184 46 60
0.260398 -0.45874 -7.70964 199 190 196
0.197625 -0.522303 -7.65249 202 196 158
0.123224 -0.453925 -7.67307 145 26 24
0.197382 -0.582634 -7.73613 187 106 101
0.386508 -0.444191 -7.61458 136 120 90
0.363095 -0.291749 -7.58943 200 106 6
0.324388 -0.817979 -7.56437 77 70 59
0.397478 -0.669464 -7.62901 116 74 80
0.54161 0.00754707 -7.55598 200 162 80
0.169047 -0.533103 -7.73925 194 145 124
0.375751 -0.756088 -7.5847 214 198 180
0.237573 -0.45246 -7.77721 170 58 63
0.264705 -1.38526 -7.45224 134 38 43
0.500555 -0.872369 -7.48123 176 98 118
0.236266 -0.448278 -7.76374 146 61 68
0.252282 -0.442617 -7.75684 134 122 92
0.280285 -1.35852 -7.47236 202 60 62
0.267211 -0.817879 -7.52995 150 112 70
0.517591 -0.734484 -7.61621 153 160 174
0.145891 -0.573581 -7.6557 178 160 152
0.122465 -0.550256 -7.6669 135 108 101
0.124542 -0.532895 -7.68904 220 154 122
0.1318 -0.489273 -7.7305 124 28 10
0.147133 -0.46372 -8.07567 146 110 102
0.226288 -0.316927 -7.56659 140 110 19
0.375301 -0.253185 -7.59133 136 74 51
0.208599 -0.226231 -7.53901 114 65 1
0.264343 0.0144638 -7.44377 168 121 45
0.109365 -0.48961 -7.68582 162 64 60
0.506447 -0.464046 -7.54138 218 190 58
0.107394 -0.490866 -7.69012 149 56 48
0.51132 -0.27576 -7.61003 232 151 38
0.18281 -0.563749 -7.74246 146 84 68
0.28762 -0.474997 -7.76123 244 204 216
0.126241 -0.458289 -7.72151 182 134 92
0.324716 -0.969869 -7.51754 218 150 78
0.320807 -0.823153 -7.57402 74 59 42
0.220888 -0.325816 -7.44051 70 19 0
0.655997 -0.275633 -7.52356 122 56 0
0.649712 -0.215338 -7.54034 169 134 38
0.469284 -0.364544 -7.61448 170 146 60
0.196795 -0.525986 -7.73146 220 198 172
0.470139 -0.871914 -7.53065 178 18 46
0.406698 -0.856503 -7.56985 174 100 106
0.316 -0.659761 -7.61386 116 103 86
0.254077 -0.490472 -7.78543 236 212 224
0.488033 -0.229218 -7.58121 74 32 6
0.356117 -0.796122 -7.58501 82 56 14
0.522027 -0.733386 -7.61025 148 154 168
0.51708 -0.725783 -7.61355 228 240 249
0.109971 -0.489431 -7.68249 170 70 64
0.198935 -0.450191 -7.75238 225 81 86
0.522073 -0.733901 -7.60953 152 157 171
0.17644 -0.52065 -7.74671 188 97 66
0.253499 -0.514882 -7.75294 182 33 42
0.249453 -0.451301 -7.76414 215 188 170
0.486098 -0.73602 -7.5912 215 232 229
0.250334 -0.515657 -7.76065 185 36 48
0.283051 -0.490132 -7.73683 190 84 118
0.22431 -0.320674 -7.57693 136 104 18
0.659997 -0.2089 -7.51941 168 137 43
0.66508 -0.192451 -7.51563 217 208 117
0.674336 -0.12136 -7.52109 124 90 0
0.121918 -0.542136 -7.64219 178 139 139
0.171907 -0.52595 -7.75104 194 128 99
0.194813 -0.454722 -7.7639 220 76 82
0.487769 -0.853886 -7.50897 220 214 228
0.297696 -0.467352 -7.75498 166 54 46
0.274419 -0.517806 -7.7679 234 125 162
0.356375 -0.298655 -7.60655 201 106 6
0.13709 -0.49411 -7.72212 201 114 84
0.206171 -0.446989 -7.77646 142 20 20
0.214906 -0.602655 -7.61031 199 192 180
0.352415 -0.507991 -7.6579 122 105 90
0.658291 -0.213392 -7.52669 113 79 9
0.28967 -1.39592 -7.44425 180 118 127
0.462502 -0.781075 -7.55647 173 177 164
0.269881 -0.855679 -7.52329 157 34 28
0.209257 -0.606677 -7.63135 198 194 190
0.348419 -0.512717 -7.66858 128 104 90
0.28584 -0.511493 -7.7442 234 130 170
0.206072 -0.4547 -7.7604 194 52 60
0.712364 -0.190446 -7.46917 206 180 94
0.289466 -1.39642 -7.43923 200 148 152
0.212946 -0.54753 -7.74487 248 212 204
0.193092 -0.508785 -7.69078 212 144 102
0.264887 -0.434522 -7.72191 150 122 48
0.558033 -1.09549 -6.38825 220 130 80
0.250195 -0.702333 -7.60417 210 210 186
0.252293 -0.476548 -7.71872 178 51 72
0.241138 -0.450759 -7.73255 190 26 46
0.22427 -0.4368 -7.753 147 150 148
0.323755 -0.506037 -7.75366 178 88 96
0.368467 -0.346711 -7.59537 164 136 40
0.1242 -0.449437 -7.71084 104 42 24
0.365687 0.0258924 -7.53594 104 56 2
0.354514 -0.821764 -7.58017 202 180 125
0.253123 -0.490672 -7.76378 173 106 120
0.305205 -0.469078 -7.70813 222 88 120
0.347757 -0.171323 -7.55671 160 121 0
0.248656 -0.593566 -7.70527 198 134 128
0.192214 -0.564112 -7.76883 188 146 128
0.296946 -1.38349 -7.45283 136 32 58
0.255668 -0.448273 -7.7828 142 124 102
0.698842 -0.0424003 -7.50494 194 153 26
0.359904 -0.879065 -7.61152 203 48 24
0.322354 -0.969161 -7.51772 220 146 78
0.428404 0.0222228 -7.56019 94 44 6
0.662643 -0.169824 -7.52328 214 167 18
0.322584 -0.65982 -7.59714 116 104 88
0.321356 -0.816188 -7.5866 79 74 67
0.385255 -0.290302 -7.60232 90 64 70
0.216549 -0.225199 -7.53444 110 59 0
0.281067 -0.488349 -7.74173 166 82 113
0.65857 -0.197565 -7.52954 209 193 74
0.20506 -0.531163 -7.75285 236 215 199
0.278135 -0.513365 -7.73842 228 122 158
0.515214 -0.731008 -7.62439 174 184 197
0.258715 -0.445792 -7.76058 142 120 72
0.69541 -0.117797 -7.50605 221 199 136
0.662764 -0.196574 -7.52217 216 206 114
0.666669 -0.169529 -7.51316 205 163 30
0.652641 -0.017111 -7.52831 106 66 4
0.522298 -0.73263 -7.60022 124 131 148
0.420432 0.0147232 -7.55705 146 106 36
0.376775 -0.251616 -7.54528 160 48 4
0.174905 -0.556685 -7.8167 138 68 60
0.693232 -0.0887564 -7.61853 128 84 18
0.32574 -0.47113 -7.69387 170 99 63
0.72617 -0.310961 -7.39817 152 130 96
0.700863 -0.0555823 -7.48056 241 206 38
0.35442 -1.0115 -7.54803 208 82 75
0.339696 -0.497714 -7.69522 172 114 130
0.613607 -0.285129 -7.52997 246 140 84
0.166351 -0.473424 -7.77248 199 149 108
0.66207 -0.228027 -7.5442 188 155 50
0.408032 -0.668388 -7.62282 152 140 134
0.395287 -0.221952 -7.57676 60 19 1
0.401198 -0.678241 -7.62189 159 130 118
0.197692 -0.510678 -7.73261 207 82 34
0.230275 -0.447833 -7.70226 184 76 82
0.60545 -0.28581 -7.53348 241 142 101
0.335441 -0.151476 -7.58289 142 109 26
0.341205 -0.52377 -7.70254 212 190 200
0.233012 -0.45449 -7.71916 198 102 108
0.601931 -0.284818 -7.53274 240 142 90
0.670201 -0.233823 -7.50948 240 211 107
0.321627 -0.839625 -7.56571 147 88 60
0.289257 -0.505871 -7.72001 224 145 192
0.358033 0.0234643 -7.52726 92 54 1
0.266308 -0.56414 -7.72252 212 214 216
0.260099 -0.49243 -7.7705 212 164 172
0.224109 -0.460714 -7.76797 178 3 10
0.201609 -0.430892 -7.71234 182 161 156
0.332986 -0.148494 -7.57197 138 108 27
0.165679 -0.525289 -7.72722 165 84 70
0.698394 -0.0365401 -7.4979 208 166 71
0.580669 0.00238583 -7.55543 102 56 2
0.164665 -0.537933 -7.73759 144 84 70
0.664661 -0.205752 -7.51752 103 74 4
0.669124 -0.198916 -7.50568 102 81 12
0.28048 -0.503722 -7.71847 217 122 170
0.198696 -0.445374 -7.68522 180 34 32
0.348632 -0.341947 -7.5663 178 150 2
0.16479 -0.451643 -7.73859 149 40 28
0.266687 -0.564022 -7.74193 225 199 202
0.381874 -0.228755 -7.56564 76 39 6
0.374916 -0.257009 -7.59148 136 50 20
0.412285 -0.421606 -7.59034 170 129 0
0.362478 -0.292145 -7.59567 194 104 12
0.235715 -0.239812 -7.61647 120 84 7
0.373539 -0.255892 -7.5964 132 60 30
0.389877 -0.663677 -7.62209 153 118 121
0.338431 -0.526441 -7.71763 167 146 140
0.333126 -0.468491 -7.63419 171 46 41
0.265919 -0.716219 -7.60911 169 162 137
0.332837 -0.471202 -7.66161 175 41 40
0.258176 -0.825655 -7.43821 144 42 33
0.281783 -1.32853 -7.49066 208 68 68
0.339517 -0.890598 -7.555 214 68 48
0.267648 -0.713961 -7.51036 164 162 138
0.516991 -0.731834 -7.60045 111 124 136
0.372693 -0.661901 -7.60261 118 84 78
0.27766 -0.57615 -7.70246 200 152 157
0.313177 -0.572901 -7.67399 224 179 177
0.317895 -0.564418 -7.63923 214 158 160
0.336733 -0.530194 -7.66721 228 206 217
0.294348 -0.508701 -7.71264 228 134 179
0.35232 -0.494921 -7.66387 194 191 176
0.52153 -0.494539 -7.48114 252 255 245
0.471806 -0.470138 -7.60368 164 154 67
0.500779 -0.468773 -7.59598 184 154 16
0.612352 -0.471725 -7.4942 194 157 0
0.242348 -0.441897 -7.73667 112 104 97
0.381625 -0.351636 -7.60838 55 25 3
0.493919 -0.348921 -7.61041 99 46 5
0.32108 -0.244314 -7.54769 119 52 4
0.72903 -0.191141 -7.46221 226 200 112
0.710386 -0.0557629 -7.48755 242 212 68
0.279682 -1.34566 -7.46393 203 68 68
0.276653 -1.25889 -7.48034 164 42 32
0.350963 -1.01236 -7.5333 205 76 67
0.335593 -0.892375 -7.53987 194 56 32
0.517921 -0.732005 -7.61421 121 132 142
0.283994 -0.66148 -7.56299 149 134 109
0.538645 -0.494952 -7.56508 184 170 87
0.29398 -0.476145 -7.7491 152 58 90
0.339182 -0.46948 -7.60927 86 68 24
0.289228 -0.46913 -7.74575 252 234 245
0.244389 -0.308599 -7.63363 188 194 152
0.255312 -0.816705 -7.46813 134 82 69
0.225464 -0.595309 -7.82104 193 138 125
0.286113 -0.467843 -7.73194 244 230 240
0.497771 -0.467665 -7.59758 186 157 26
0.245125 -0.307734 -7.63597 188 194 152
0.486648 -0.859938 -7.51196 162 96 126
0.185233 -0.586531 -7.69169 164 88 90
0.284514 -0.481244 -7.71092 190 43 92
0.33146 -0.463481 -7.57031 95 76 36
0.322152 -0.452935 -7.57919 82 62 23
0.205968 -0.428221 -7.65965 179 161 146
0.301777 -0.3238 -7.59318 106 56 20
0.217493 -0.240435 -7.57858 158 125 40
0.248307 -0.591408 -7.48963 182 179 178
0.182949 -0.58536 -7.68302 166 83 84
0.268853 -0.564187 -7.75815 212 169 177
0.174337 -0.524147 -7.75345 217 159 141
0.296021 -0.470345 -7.69988 214 120 162
0.34127 -0.473718 -7.66872 78 57 26
0.200515 -0.454013 -7.75873 159 24 18
0.237718 -0.45906 -7.7999 182 11 24
0.278471 -0.448672 -7.65753 161 122 110
0.243993 -0.44061 -7.72318 118 114 110
0.218574 -0.238924 -7.56465 170 141 48
0.712273 -0.0377247 -7.48861 86 42 4
0.515184 -0.735632 -7.59861 165 177 186
0.272997 -0.572351 -7.72619 219 215 218
0.293428 -0.565274 -7.71338 229 224 226
0.197216 -0.529485 -7.75789 226 206 182
0.155152 -0.465412 -7.72911 173 152 100
0.280778 -0.466307 -7.71537 228 230 235
0.273969 -0.441111 -7.61095 132 100 38
0.253459 -0.445293 -7.76006 120 124 121
0.662729 -0.144863 -7.52386 209 158 8
0.265638 -0.832499 -7.49847 140 20 18
0.330031 -0.661732 -7.65196 139 125 106
0.567372 -0.629204 -7.47609 104 103 80
0.293775 -0.568919 -7.70551 160 98 110
0.277273 -0.544167 -7.75055 203 158 175
0.190107 -0.506946 -7.70691 204 78 34
0.163066 -0.469013 -7.7524 190 150 106
0.155642 -0.444349 -7.69861 143 23 22
0.416632 -0.844428 -7.56314 222 224 210
0.2423 -0.59749 -7.64897 162 112 116
0.19865 -0.553006 -7.76313 204 204 178
0.259689 -0.490755 -7.77393 228 205 210
0.67248 -0.156575 -7.55013 216 202 154
0.358434 0.00897566 -7.58158 85 47 0
0.419797 0.0233905 -7.53165 162 122 43
0.505725 -0.275843 -7.61161 158 92 22
0.695231 -0.0695974 -7.49567 188 152 0
0.263312 -0.570243 -7.72732 154 70 89
0.16447 -0.459768 -7.74817 194 114 89
0.173545 -0.447973 -7.7759 138 33 28
0.338214 -0.892966 -7.55817 198 58 36
0.660011 -0.212619 -7.53399 175 147 38
0.663989 -0.169446 -7.51914 208 163 32
0.499332 -0.865824 -7.49811 186 60 94
0.689158 -0.0349852 -7.50664 212 188 63
0.379005 -0.352565 -7.59122 104 78 26
0.189067 -0.590171 -7.7102 190 142 142
0.267471 -0.572601 -7.70481 213 182 188
0.136136 -0.515707 -7.73279 169 71 58
0.334743 -0.154618 -7.56948 180 171 114
0.67583 -0.191162 -7.5072 160 148 107
0.180795 -0.58332 -7.81501 204 180 169
0.233352 -0.456914 -7.77802 164 28 36
0.291261 -0.489418 -7.72644 202 58 102
0.291642 -0.491382 -7.73075 210 64 107
0.261821 -1.3789 -7.44697 123 22 29
0.532703 -0.50537 -7.57017 253 255 244
0.499328 -0.467727 -7.5838 194 165 30
0.335494 -0.521533 -7.65777 216 197 208
0.454334 -1.02043 -7.47391 123 50 69
0.31882 -0.563947 -7.6413 218 174 170
0.312529 -0.545604 -7.7133 236 178 192
