ply
format ascii 1.0
element vertex 1299
property float x
property float y
property float z
property uchar red
property uchar green
property uchar blue
end_header
0.537109 0.146108 3.69103 246 252 246
0.357842 0.153501 4.88724 187 135 152
0.431927 0.152947 4.43732 213 203 198
0.540545 0.149942 3.68308 161 154 102
0.381463 0.166845 4.78277 222 172 192
0.330957 0.179153 4.98579 169 98 108
0.386911 0.185127 4.6091 231 122 156
0.503077 0.181794 3.67761 184 154 44
0.386642 0.195638 4.67365 153 62 72
0.377694 0.201567 4.69817 234 210 197
0.386114 0.200524 3.87178 94 72 20
0.392008 0.197673 3.85307 93 71 35
0.180414 0.226587 4.43783 118 58 33
0.470741 0.207646 3.86261 174 144 49
0.209675 0.237154 3.85666 184 164 153
0.428391 0.221294 3.87038 193 171 70
0.410075 0.300879 3.87831 104 75 26
0.512785 0.29235 3.89309 171 139 44
0.391777 0.319483 3.86255 82 45 13
0.359254 0.321501 3.76309 196 132 15
0.521914 0.308832 3.82421 89 37 3
0.273509 0.366551 4.05235 172 175 130
0.537675 0.349459 3.88998 102 58 70
0.410407 0.373111 3.85608 86 52 50
0.285449 0.387111 3.86548 150 176 168
0.535003 0.366531 3.79638 226 196 164
0.593072 0.349478 3.39412 229 186 76
0.597252 0.347053 3.36719 145 58 2
0.332916 0.402789 3.77388 114 62 36
0.540457 0.391005 3.77724 184 116 2
0.380628 0.409372 3.70745 162 126 20
0.393506 0.416942 3.75703 57 20 0
0.525392 0.410562 3.74942 105 68 0
0.410162 0.433156 3.74613 94 54 9
0.605178 0.419152 3.3273 215 198 146
0.593078 0.42234 3.30119 144 139 98
0.596773 0.42907 3.34353 214 196 78
0.333718 0.47567 3.56368 218 194 58
0.592997 0.439564 3.3257 192 157 48
0.595467 0.452695 3.32097 206 192 126
0.590905 0.45962 3.3085 174 142 44
0.601378 0.485869 3.29338 136 106 0
0.606813 0.536349 3.20406 80 36 0
0.587893 0.529375 3.14776 128 83 27
0.593227 0.543888 3.22776 220 188 64
0.575108 0.56738 3.30295 196 170 42
0.534597 0.587173 3.32875 178 144 57
0.547371 0.600319 3.42199 210 179 70
0.344125 0.624162 3.42806 70 32 0
0.518416 0.61643 3.47619 146 137 108
0.404347 0.62959 3.47172 140 103 19
0.504055 0.610882 3.4212 191 157 74
0.395823 0.637631 3.50097 69 34 2
0.411659 0.625003 3.44065 178 132 42
0.488491 0.617157 3.43883 146 108 20
0.245236 -0.697893 3.5065 226 190 192
0.256213 -0.65648 3.49114 190 60 45
0.264797 -0.664514 3.62755 164 65 56
0.321184 -0.407191 3.77653 209 126 57
0.343461 -0.252379 3.79325 203 64 34
0.428519 -0.25142 3.73473 214 96 130
0.441806 -0.249215 3.70504 224 116 154
0.277642 -0.235092 3.84433 160 55 45
0.423203 -0.247606 3.88628 203 130 128
0.480414 -0.22061 3.69338 130 31 68
0.478426 -0.228136 3.74338 182 158 171
0.33798 -0.227623 3.89861 141 78 47
0.433936 -0.225602 3.92071 54 52 58
0.276105 -0.186112 3.74105 132 92 44
0.348341 -0.215396 3.92708 32 24 12
0.429843 -0.229797 3.97221 122 119 111
0.349437 -0.202464 3.94454 34 21 10
0.389853 -0.201195 4.03244 138 118 72
0.487337 -0.161188 3.85042 175 182 172
0.435548 -0.154505 4.06435 135 136 130
0.399509 -0.148465 4.08163 129 112 72
0.461782 -0.151549 4.10917 198 200 184
0.433022 -0.146639 4.11621 84 80 80
0.259611 -0.0649246 3.67136 170 168 152
0.5983 -0.137778 4.11159 164 173 184
0.417692 -0.0627212 4.15558 148 114 81
0.46754 -0.071516 4.17499 154 119 116
0.408821 -0.0577609 4.12031 100 66 44
0.458849 -0.0557 4.11086 192 164 163
0.22586 0.0188055 4.38939 156 127 125
0.247347 0.0618636 3.6068 162 76 70
0.301253 0.0188507 4.53298 230 200 190
0.247053 0.0399794 4.46034 220 154 140
0.179359 0.0529355 4.51604 216 166 143
0.351224 0.0370796 4.60753 191 144 146
0.343179 0.047357 4.73567 194 135 142
0.34138 0.0564139 4.69845 200 149 157
0.31611 0.0785739 4.4262 172 95 111
0.381895 0.0794455 4.92552 197 122 142
0.393711 0.0965726 4.68934 242 196 218
0.411677 0.103702 4.37995 220 195 198
0.347309 0.156306 4.84578 212 168 177
0.424677 0.152962 4.39871 220 194 196
0.534476 0.151612 3.64322 158 154 108
0.377874 0.193645 4.92664 227 242 244
0.51191 0.182124 3.73988 186 157 45
0.257436 0.213346 4.72203 194 58 52
0.398378 0.200012 3.97694 98 76 26
0.179827 0.226135 4.43285 130 58 32
0.336731 0.220557 4.38561 128 108 52
0.470347 0.208799 3.86301 176 143 34
0.578294 0.257908 3.31411 180 142 84
0.597172 0.262093 3.4364 218 196 108
0.408858 0.302395 3.8677 64 32 4
0.389262 0.322275 3.83846 118 70 26
0.388384 0.358951 3.81209 164 90 24
0.530263 0.353433 3.76322 230 218 198
0.5391 0.369415 3.8611 97 62 77
0.588711 0.349031 3.36932 245 208 76
0.593235 0.348367 3.35153 166 82 15
0.333285 0.400866 3.76835 117 58 31
0.553039 0.396825 3.84677 166 110 0
0.528123 0.39603 3.74525 220 197 78
0.392876 0.416242 3.74676 64 28 2
0.526815 0.410763 3.7595 84 44 0
0.408993 0.432976 3.73917 61 21 0
0.499794 0.423514 3.68555 95 55 0
0.332196 0.485624 3.59268 141 108 26
0.346051 0.491981 3.61191 158 110 0
0.596096 0.47102 3.30135 192 168 109
0.594044 0.478994 3.2931 132 99 4
0.588706 0.522259 3.14861 222 189 58
0.584507 0.527179 3.13496 90 43 2
0.264179 0.584877 3.25168 161 108 20
0.277158 0.594159 3.31003 103 59 7
0.336319 0.620184 3.40806 80 40 2
0.405568 0.62864 3.47571 118 83 14
0.37583 0.615051 3.3497 71 36 3
0.410794 0.627714 3.44395 174 126 41
0.492234 0.624267 3.46814 96 54 0
0.518642 0.64127 3.59449 200 162 49
0.438276 -0.247345 3.69052 216 106 145
0.421722 -0.24572 3.70432 216 92 124
0.430144 -0.259281 3.95361 145 48 54
0.43613 -0.248425 3.86763 140 18 35
0.479289 -0.224818 3.6958 132 53 87
0.334259 -0.226586 3.8771 110 11 3
0.275222 -0.183717 3.72503 132 92 44
0.347626 -0.217282 3.94374 38 28 15
0.250997 -0.176853 3.69746 136 57 40
0.344406 -0.200877 3.91005 42 34 29
0.389089 -0.202522 4.03122 177 156 106
0.480798 -0.158482 3.81117 203 210 200
0.429872 -0.16198 4.15291 214 196 182
0.396092 -0.146604 4.06381 141 122 71
0.444693 -0.162855 4.1643 144 146 144
0.243604 -0.0430097 3.45057 166 162 140
0.519797 -0.0624748 3.85753 178 188 188
0.436217 -0.0576402 4.04989 192 194 184
0.445389 -0.0518247 4.11898 135 85 90
0.293755 0.022922 4.46153 210 200 184
0.244775 0.0395562 4.46008 222 168 152
0.351785 0.0347638 4.68862 180 124 132
0.22636 0.0652815 4.4782 217 182 162
0.127904 0.105594 4.51956 193 156 151
0.370429 0.0844375 4.79552 210 152 168
0.377241 0.0940987 4.69001 226 174 196
0.410785 0.103087 4.37536 220 195 198
0.157781 0.155354 4.47893 176 82 50
0.52326 0.145534 3.61692 226 236 238
0.423771 0.149412 4.40096 232 206 213
0.534303 0.150433 3.64659 168 164 127
0.389178 0.165041 4.77912 197 34 80
0.116038 0.201888 4.2468 194 148 142
0.129394 0.205273 4.40397 141 52 45
0.372546 0.187214 4.52056 216 156 180
0.399995 0.197731 3.9362 109 88 52
0.183647 0.222446 4.45391 175 88 64
0.363258 0.219136 4.66976 128 108 52
0.471712 0.206101 3.88505 182 160 90
0.407198 0.299469 3.85104 141 113 40
0.390181 0.320603 3.85596 142 98 33
0.38608 0.355956 3.79658 154 80 18
0.405824 0.370866 3.82379 78 42 41
0.59153 0.351301 3.40117 221 180 92
0.257622 0.422477 3.79247 106 65 0
0.383799 0.410941 3.74809 154 107 4
0.528944 0.396447 3.74548 219 190 70
0.394196 0.414265 3.76217 80 42 11
0.501855 0.423517 3.71625 70 27 4
0.340019 0.479766 3.64877 206 191 77
0.313205 0.505529 3.66225 172 188 150
0.608162 0.481185 3.29607 208 194 152
0.561755 0.523338 3.07556 218 187 22
0.268293 0.579323 3.22912 104 60 2
0.511771 0.640555 3.58861 191 150 43
0.276044 -0.721669 3.70036 179 47 32
0.337904 -0.292596 3.7812 186 76 26
0.341019 -0.251679 3.7869 198 60 30
0.460221 -0.220945 3.75484 174 176 177
0.308447 -0.206949 3.83484 47 24 2
0.427199 -0.223162 3.9126 62 60 64
0.388993 -0.202398 4.03338 174 154 102
0.398886 -0.14779 4.08174 130 113 74
0.429166 -0.144731 4.08673 96 92 94
0.410554 -0.0596541 4.12379 162 130 112
0.43868 -0.0644922 4.13938 178 180 166
0.458954 -0.0653808 4.11581 143 100 100
0.485015 -0.0590807 4.0571 140 139 122
0.44321 -0.052025 4.14291 130 90 85
0.294238 0.022378 4.49285 220 202 187
0.357921 0.0887791 4.68774 170 92 110
0.381549 0.089853 4.72953 247 218 236
0.429203 0.145456 4.45085 223 211 218
0.533147 0.149393 3.64259 168 166 131
0.355357 0.156319 4.8442 227 201 213
0.397604 0.163826 4.8262 196 22 66
0.382379 0.187976 4.79293 236 244 246
0.323781 0.207904 4.87584 221 177 183
0.230503 0.23641 4.28043 180 159 153
0.575171 0.256865 3.30009 176 136 67
0.572273 0.261265 3.32868 214 192 87
0.410263 0.302573 3.88398 100 69 28
0.50141 0.291899 3.82434 143 111 27
0.396194 0.312102 3.85575 101 68 29
0.389029 0.321507 3.83872 116 70 27
0.522362 0.313189 3.81857 82 34 12
0.387933 0.356254 3.81066 164 86 13
0.526078 0.353354 3.72497 216 208 196
0.382563 0.411546 3.74364 170 138 8
0.393664 0.413541 3.75446 50 13 0
0.601029 0.377238 3.39194 204 155 42
0.410019 0.432334 3.7724 56 16 1
0.595152 0.401851 3.1428 213 199 155
0.597853 0.418619 3.35273 210 193 72
0.343416 0.487634 3.69784 186 191 118
0.305091 0.507719 3.71585 158 161 114
0.602689 0.484247 3.31925 138 102 0
0.58654 0.527206 3.13516 127 84 30
0.338725 0.622821 3.43033 80 42 0
0.396925 0.629543 3.4701 108 76 22
0.428185 0.646429 3.59009 190 143 26
0.269544 -0.749924 3.68027 152 40 36
0.231253 -0.659677 3.46178 204 194 202
0.341584 -0.254096 3.8003 181 43 14
0.392713 -0.260696 3.79778 200 42 32
0.329126 -0.215966 3.81231 123 49 26
0.461479 -0.222733 3.74538 162 162 167
0.350109 -0.211685 3.93292 54 46 44
0.434205 -0.220737 3.92824 112 110 120
0.384139 -0.199553 3.99087 194 174 118
0.482917 -0.15703 3.82233 222 228 220
0.398049 -0.149974 4.08093 140 122 68
0.428648 -0.14537 4.06538 104 104 105
0.405673 -0.0545263 4.0503 196 169 149
0.458873 -0.0678976 4.11876 166 132 130
0.513987 -0.0493564 3.83426 158 169 173
0.300109 0.0224266 4.33473 173 76 70
0.289237 0.0236514 4.46415 214 203 186
0.278923 0.0786212 3.9001 214 180 184
0.343291 0.0658774 4.69974 228 184 196
0.13363 0.105651 4.47034 177 124 118
0.396685 0.0832079 4.63622 228 240 243
0.385497 0.0892171 4.78434 230 213 228
0.420041 0.144722 4.37468 228 210 220
0.356534 0.155011 5.00156 218 180 184
0.471809 0.207837 3.89578 184 150 50
0.583066 0.264758 3.39566 212 186 55
0.513044 0.29914 3.83948 91 59 10
0.389445 0.321676 3.85689 147 92 28
0.514078 0.308023 3.79529 76 32 12
0.533878 0.354777 3.79295 228 214 194
0.592267 0.352777 3.42283 221 182 92
0.339321 0.404717 3.82492 122 47 13
0.254633 0.418424 3.77251 108 66 0
0.377616 0.409024 3.7335 162 116 2
0.532611 0.394273 3.72264 225 198 62
0.520243 0.408006 3.74254 73 26 2
0.397902 0.422879 3.73337 62 24 6
0.408152 0.431491 3.70743 56 18 0
0.505887 0.424949 3.74929 64 20 1
0.590604 0.411942 3.3053 82 61 6
0.585443 0.401935 3.10883 217 204 156
0.339274 0.480534 3.67455 176 200 161
0.312908 0.512769 3.79238 162 166 124
0.590967 0.448321 3.29497 216 203 145
0.591874 0.462794 3.32719 193 141 1
0.60335 0.474399 3.27261 207 194 160
0.586444 0.529726 3.13545 94 48 8
0.33717 0.62634 3.44429 87 50 4
0.438554 -0.252274 3.72747 193 76 114
0.295959 -0.192862 3.72768 74 36 20
0.359463 -0.220142 3.877 200 180 132
0.432133 -0.227406 3.93421 51 50 54
0.388386 -0.203554 4.00787 144 124 77
0.426929 -0.148538 4.0663 164 164 164
0.466872 -0.0757707 4.17586 179 168 152
0.298223 0.0239177 4.2934 175 98 92
0.392981 0.0790288 4.62091 226 236 237
0.21328 0.107575 4.62806 200 184 150
0.368713 0.126633 4.61886 211 122 169
0.379353 0.157289 4.63361 213 49 94
0.395154 0.193038 3.92601 124 104 56
0.218866 0.235068 4.03496 168 136 128
0.437202 0.222018 3.8613 164 132 6
0.356317 0.310526 3.75936 172 135 3
0.397663 0.310512 3.86005 76 44 18
0.493686 0.29638 3.70315 80 49 20
0.591767 0.344714 3.35546 212 97 4
0.338963 0.398996 3.78821 154 54 4
0.215528 0.399176 3.60016 171 138 50
0.258766 0.426131 3.81238 112 68 1
0.515906 0.412742 3.74362 65 14 4
0.589117 0.377381 3.27794 235 208 104
0.409782 0.427813 3.72511 46 12 2
0.599793 0.408877 3.19721 222 202 138
0.590513 0.461803 3.32122 208 157 2
0.219835 -0.62644 3.35898 214 195 202
0.437744 -0.258964 3.76334 192 76 114
0.331494 -0.216795 3.80474 122 10 4
0.299899 -0.204584 3.78191 114 22 8
0.348166 -0.220652 3.85945 210 180 138
0.34037 -0.206986 3.88921 82 68 52
0.42679 -0.177915 4.14974 204 167 146
0.421797 -0.142963 4.0518 116 112 114
0.263296 -0.0743024 3.67101 167 158 122
0.288375 -0.0530939 4.06352 164 155 125
0.454072 -0.0672393 4.08724 181 174 158
0.407968 -0.0617494 4.12695 206 181 166
0.484389 -0.0644088 4.085 168 168 149
0.193352 0.0436419 4.22422 161 86 86
0.249178 0.0288073 4.45517 192 188 160
0.267978 0.0284765 4.38155 202 202 180
0.207174 0.0812907 4.66392 197 168 146
0.324987 0.101926 3.75623 190 68 86
0.3834 0.0757506 4.62391 218 231 232
0.225159 0.108774 4.59733 193 190 156
0.44374 0.108333 4.67332 172 133 146
0.36454 0.131225 4.67291 210 118 162
0.115409 0.192591 4.09206 148 67 54
0.405403 0.300675 3.86193 177 155 34
0.387951 0.322307 3.84073 148 92 17
0.52711 0.352361 3.75851 172 164 162
0.512547 0.398213 3.71712 60 9 11
0.568736 0.408163 3.92559 224 201 56
0.404213 0.42022 3.79036 74 37 8
0.309109 0.498905 3.72401 166 182 156
0.597736 0.46152 3.25235 224 210 186
0.299802 0.586254 3.18317 90 52 6
0.406162 -0.21387 3.66935 159 101 102
0.463294 -0.205574 3.57249 126 60 87
0.295202 -0.204582 3.82369 56 22 2
0.276826 -0.193039 3.77892 130 73 36
0.467492 -0.072258 4.17334 105 64 58
0.450414 -0.0621158 4.13166 234 198 202
0.462925 -0.0579903 4.09305 195 186 178
0.436406 -0.0474178 4.09268 138 96 97
0.231424 0.0232885 4.50652 212 166 153
0.251446 0.0432606 4.85181 211 158 145
0.139968 0.0974948 4.48604 211 142 124
0.158691 0.162688 4.59139 190 150 110
0.393203 0.162915 4.98551 208 141 168
0.390317 0.187734 4.72065 242 168 198
0.189827 0.221237 4.74648 194 140 104
0.267079 0.212752 4.91414 144 0 2
0.192323 0.225912 4.65049 118 39 22
0.406271 0.301202 3.83558 100 68 20
0.402574 0.362451 3.84653 97 61 50
0.405409 0.369936 3.79582 96 66 67
0.386692 0.383403 3.79041 158 63 26
0.335597 0.404469 3.79826 118 59 24
0.599288 0.454524 3.33434 242 235 192
0.6039 0.475876 3.32111 230 211 170
0.593215 0.480988 3.25677 132 102 6
0.275033 0.600512 3.32374 75 30 0
0.586109 0.593695 3.43176 91 48 0
0.340839 0.620267 3.4429 98 58 3
0.53878 0.595062 3.36453 205 170 83
0.387846 0.629455 3.43733 79 42 4
0.267411 -0.675808 3.68134 156 62 48
0.351949 -0.265136 3.85716 206 68 38
0.254261 -0.167386 3.59104 140 25 14
0.264495 -0.166897 3.5534 133 78 42
0.435749 -0.166348 4.1884 225 216 206
0.448612 -0.0525339 4.13043 114 72 76
0.355548 0.191564 4.46652 241 244 246
0.266977 0.212258 5.0467 155 10 14
0.584497 0.257296 3.34471 96 50 2
0.53104 0.352576 3.75192 248 214 174
0.525157 0.357863 3.77789 103 80 106
0.528451 0.36497 3.78321 94 68 83
0.367738 0.398629 3.71953 150 35 0
0.534458 0.398854 3.7832 215 191 78
0.59315 0.468158 3.28874 203 184 126
0.601476 0.481331 3.32577 120 90 9
0.596008 0.526437 3.17497 233 199 83
0.262984 0.580765 3.23167 166 114 26
0.406063 0.633401 3.50513 124 87 20
0.386972 -0.255854 3.76908 218 62 48
0.47805 -0.207853 3.56761 164 64 95
0.145597 0.157197 4.28455 168 63 40
0.379372 0.133665 4.69919 221 128 174
0.358124 0.154016 4.87894 212 164 179
0.372658 0.169863 4.70639 240 206 226
0.459723 0.21064 3.84302 182 144 23
0.42482 0.221534 3.86695 195 174 68
0.363162 0.322176 3.80217 196 130 10
0.383896 0.411169 3.7365 172 138 16
0.600993 0.394254 3.37019 214 180 56
0.595511 0.415165 3.27804 214 196 144
0.33833 0.479118 3.61096 218 196 63
0.558317 0.572718 3.28316 134 92 13
0.270465 -0.682526 3.68242 148 44 31
0.27677 -0.235941 3.83842 146 40 31
0.309845 -0.20838 3.84842 43 15 4
0.436603 -0.219301 3.93764 70 69 80
0.462768 -0.0686238 4.13949 148 107 102
0.439072 -0.051148 4.13857 152 106 108
0.17962 0.0466381 4.63168 201 175 142
0.348945 0.155656 4.93012 220 181 186
0.470988 0.209003 3.91991 198 166 63
0.499049 0.293073 3.81037 88 57 6
0.352623 0.32102 3.77182 184 131 8
0.529089 0.357726 3.76697 207 198 193
0.516807 0.41559 3.74454 73 22 2
0.589625 0.389379 3.31486 220 188 80
0.346965 0.491081 3.62149 170 126 4
0.587329 0.52112 3.15083 222 188 54
0.341891 0.62863 3.45934 78 42 0
0.409356 0.632459 3.49376 153 110 36
0.445086 -0.256386 3.75797 226 123 162
0.338678 -0.227232 3.90005 159 102 64
0.352767 -0.214192 3.93951 30 22 12
0.435519 -0.220684 3.9287 79 78 90
0.436572 -0.150202 4.09137 126 129 126
0.276129 0.0808629 4.9064 245 213 205
0.27592 0.0865529 5.04111 244 203 192
0.409629 0.379548 3.93012 58 6 4
0.590591 0.351585 3.39533 226 176 76
0.340544 0.4054 3.82538 130 54 12
0.501511 0.423469 3.70568 80 39 0
0.598781 0.473804 3.25022 208 195 159
0.491899 0.625918 3.47224 114 68 3
0.305676 -0.203199 3.8103 47 18 4
0.362974 -0.230611 3.95642 204 182 136
0.42868 -0.16519 4.12443 217 192 176
0.274661 0.0223802 4.71928 224 198 178
0.37116 0.129624 4.62165 222 134 178
0.32066 0.20355 4.84249 176 101 111
0.573338 0.256371 3.29244 133 90 34
0.501854 0.292641 3.8485 134 101 30
0.396804 0.414052 3.76485 50 8 3
0.33915 -0.198291 3.84813 72 59 46
0.430859 -0.17612 4.14799 220 202 191
0.396599 -0.148522 4.05812 128 108 73
0.244806 -0.0560906 3.46162 176 172 154
0.417225 -0.0657051 4.16508 198 172 154
0.276141 0.0709169 4.92873 230 214 206
0.413446 0.145397 4.28303 209 196 202
0.51714 0.294179 3.943 88 57 6
0.534997 0.351498 3.78858 240 210 169
0.528803 0.407471 3.79264 72 26 8
0.339279 0.485695 3.68677 184 198 137
0.314368 0.509124 3.79294 172 186 159
0.575565 0.441765 3.22166 226 210 132
0.598135 0.468582 3.24307 218 205 178
0.589868 0.476794 3.27203 133 98 0
0.325012 0.61223 3.35458 94 55 0
0.493264 -0.236904 3.6812 181 44 75
0.22672 0.0671785 4.49719 210 194 167
0.40719 0.108951 4.60207 198 48 78
0.428986 0.138692 4.47841 190 148 160
0.361968 0.307335 3.77895 177 143 2
0.59819 0.284084 3.17579 159 140 116
0.336732 0.396627 3.76788 136 63 22
0.513733 0.41509 3.77008 66 12 7
0.589874 0.40961 3.18165 226 210 167
0.598378 0.533449 3.18864 118 72 20
0.291998 -0.661567 3.45972 136 52 66
0.270266 -0.668435 3.62819 180 80 75
0.360468 -0.223337 3.98369 86 75 50
0.449295 -0.154912 4.1219 182 182 168
0.435865 -0.0653726 4.21495 193 164 146
0.453182 -0.0579678 4.21536 117 72 78
0.387394 0.412322 3.75194 154 119 22
0.3917 0.416747 3.74751 74 38 6
0.260848 -0.684316 3.45664 179 102 113
0.238061 -0.67168 3.41931 166 94 102
0.335732 -0.287056 3.7487 202 96 38
0.276946 -0.23201 3.81818 188 76 66
0.361386 -0.211641 3.96394 43 31 18
0.419909 -0.0632901 4.13305 170 148 116
0.588567 0.375151 3.32713 140 94 10
0.598108 0.420708 3.34756 222 218 164
0.341376 0.628231 3.45948 86 44 1
0.296553 -0.678744 3.68194 190 60 54
0.455854 -0.247809 3.87933 176 110 110
0.31067 -0.20766 3.84381 79 50 22
0.245334 -0.166426 3.6427 138 60 54
0.230343 0.0340164 4.38944 212 158 144
0.378822 0.199683 4.68004 186 150 155
0.40616 0.366617 3.81834 90 62 58
0.529993 0.362827 3.77117 217 188 162
0.370134 0.401159 3.75831 160 47 0
0.237294 0.107929 4.86677 220 192 158
0.523635 0.309151 3.84723 78 39 27
0.578799 0.28494 3.09033 156 138 110
0.529316 0.386782 3.71499 208 132 10
0.589172 0.348624 3.33545 157 86 12
0.519208 0.174877 3.84585 194 160 34
0.484529 0.617064 3.41714 116 72 5
0.266151 0.0155569 4.71046 202 196 169
0.241044 0.0599955 4.637 206 170 146
0.574861 0.251775 3.30388 188 137 25
0.521493 0.310619 3.8209 78 39 26
0.563732 0.288279 2.99162 150 123 86
0.37397 0.40938 3.76398 174 134 5
0.379079 0.407951 3.72361 149 101 8
0.530219 0.393952 3.71593 209 178 47
0.516339 0.427036 3.82799 68 24 3
0.349564 0.494198 3.69515 172 124 6
0.390773 0.174753 4.19565 192 21 38
0.584455 0.255066 3.36417 163 116 9
0.574971 0.359521 3.40098 221 176 8
0.251837 -0.718125 3.55231 170 100 102
0.400824 -0.272797 3.87269 224 68 58
0.513145 -0.145504 3.90361 190 194 173
0.434573 -0.148506 4.15743 110 110 102
0.413623 -0.069097 4.25785 136 118 95
0.196036 0.232526 3.68532 185 164 158
0.580481 0.281074 3.52762 200 154 38
0.597428 0.4412 3.34453 180 146 43
0.249097 -0.707812 3.63833 167 50 44
0.179609 0.0556357 4.43181 220 160 138
0.151304 0.202277 4.69392 168 110 80
0.53288 0.37732 3.81147 171 102 46
0.602444 0.582592 3.41066 142 104 17
0.274101 -0.732617 3.58475 166 93 102
0.436026 -0.218867 3.94746 62 61 66
0.445511 -0.0612845 4.13988 205 193 190
0.119197 0.123943 3.93797 178 120 114
0.400539 0.0946708 4.63559 250 212 227
0.345398 0.195155 4.35962 238 248 250
0.595328 0.291348 3.16551 170 145 80
0.59739 0.414577 3.3206 98 76 14
0.278391 0.601964 3.32141 74 32 0
0.597049 0.345994 3.36782 182 99 20
0.599427 0.373947 3.38133 164 114 24
0.395049 0.634882 3.48459 132 95 36
0.250827 -0.724877 3.61241 226 198 202
0.226052 -0.622951 3.33193 220 183 191
0.24913 -0.163287 3.6093 137 47 29
0.215518 0.0666947 4.7833 130 64 52
0.232361 0.13601 4.46071 204 87 33
0.535291 0.39958 3.77256 225 203 82
0.600091 0.413332 3.28601 228 208 156
0.40632 0.63258 3.48379 112 70 11
0.246455 -0.0545129 3.46298 167 160 130
0.245915 -0.160097 3.53446 143 34 21
0.254663 0.206178 4.9227 179 32 35
0.590727 0.353097 3.41667 204 152 56
0.431452 -0.231955 3.96209 134 132 127
0.50963 0.173966 3.79871 215 193 108
0.499368 0.290814 3.85479 218 189 65
0.607823 0.345114 3.43851 199 96 2
0.594107 0.406333 3.35792 98 62 4
0.325818 0.490598 3.69005 174 212 200
0.262555 -0.694315 3.58875 199 58 50
0.252084 -0.563256 3.46505 164 44 34
0.479895 -0.21668 3.60537 146 38 71
0.293277 -0.141741 3.79327 209 200 145
0.502349 -0.173742 3.93556 144 147 134
0.24873 -0.0514385 3.5181 167 165 144
0.539448 0.0170283 3.51252 132 136 132
0.338749 0.0444368 4.49044 216 184 184
0.175904 0.0994356 4.21225 164 118 102
0.396605 0.0969202 4.6053 228 162 182
0.379441 0.129406 4.72768 230 150 196
0.554771 0.14702 3.74654 156 144 59
0.328075 0.163691 4.91869 158 22 55
0.558754 0.163096 3.95578 202 173 50
0.373254 0.183622 4.0449 96 52 0
0.348555 0.195512 3.93911 75 44 6
0.317839 0.20027 3.98939 144 66 76
0.330173 0.205014 5.01532 184 112 118
0.331361 0.215753 4.95487 211 188 188
0.643514 0.258338 3.61592 118 72 2
0.300398 0.353809 3.9762 124 173 178
0.60963 0.36742 4.26979 148 98 73
0.373226 0.36024 3.67821 82 24 4
0.554946 0.362505 3.94537 140 127 142
0.545328 0.392591 3.80692 168 116 6
0.613132 0.419924 3.35365 220 201 142
0.328502 0.461354 3.56522 154 134 12
0.61232 0.426997 3.3736 112 104 70
0.342249 0.485139 3.57258 148 100 0
0.602384 0.474868 3.33251 198 176 116
0.482799 0.598405 3.30898 186 156 102
0.260412 -0.659523 3.51375 206 70 62
0.308884 -0.382748 3.63923 214 128 66
0.279574 -0.219934 3.83216 169 48 36
0.481004 -0.205015 3.56 164 76 102
0.48635 -0.234707 3.77873 185 157 175
0.332413 -0.22367 3.86123 118 42 18
0.291754 -0.195214 3.77548 60 24 2
0.261431 -0.161994 3.57317 144 108 58
0.286034 -0.0901825 3.94376 172 170 151
0.602354 -0.13924 4.13173 150 160 169
0.417534 -0.0624641 4.16283 134 94 70
0.284685 0.0248135 4.14107 206 179 174
0.291892 0.0285053 4.38594 232 198 189
0.370911 0.0624753 4.2281 211 131 130
0.40551 0.0722159 4.6692 222 184 192
0.149164 0.157994 4.37465 183 94 68
0.159629 0.165922 4.54968 192 153 112
0.346241 0.146463 4.80968 184 58 79
0.198615 0.161139 5.04027 185 109 72
0.161388 0.172505 4.98859 131 54 38
0.313815 0.216095 4.12385 136 120 71
0.386221 0.354 3.79238 144 72 14
0.260484 0.42004 3.79088 106 72 6
0.33052 0.462997 3.60085 158 148 50
0.608785 0.420716 3.36232 96 84 28
0.459584 0.625417 3.44258 102 56 0
0.34854 -0.374151 3.6647 192 67 64
0.428345 -0.0606223 4.18607 118 81 48
0.538318 0.01758 3.51007 161 168 166
0.216154 0.0288671 4.37871 158 94 95
0.202195 0.122665 4.51169 190 110 94
0.152261 0.170596 4.37968 180 134 98
0.567596 0.137938 3.86213 249 254 252
0.122437 0.213628 4.09896 121 65 56
0.398502 0.19887 3.90519 96 75 29
0.579012 0.350529 3.48814 252 152 96
0.558332 0.38521 3.97088 118 60 38
0.607721 0.412401 3.41245 194 168 50
0.602971 0.4052 3.16321 220 202 152
0.60479 0.424681 3.34973 190 184 146
0.593211 0.443492 3.33249 210 164 20
0.600264 0.455291 3.34208 211 196 127
0.58944 0.480626 3.24287 146 110 1
0.598204 0.548953 3.24732 217 188 40
0.265562 -0.70537 3.52571 161 78 84
0.283725 -0.652498 3.60212 170 30 26
0.600873 -0.14154 4.13228 176 184 192
0.552793 -0.0752301 4.08837 172 182 185
0.513648 0.0296005 3.3868 176 183 182
0.273412 0.0268892 4.04541 186 184 188
0.202614 0.0385425 4.20005 168 98 104
0.217464 0.043479 4.1551 198 186 158
0.345039 0.0635506 4.05247 212 147 146
0.245334 0.124943 4.71561 208 87 32
0.523548 0.138793 3.58196 194 188 148
0.350407 0.15683 4.77655 216 180 194
0.194327 0.20338 4.59339 188 139 99
0.380413 0.189435 4.7539 236 250 250
0.223713 0.224108 4.7791 159 45 40
0.543367 0.258978 3.18811 222 197 84
0.265944 0.363066 3.96813 157 158 106
0.290533 0.388976 3.92425 166 190 180
0.524858 0.410922 3.76721 74 24 0
0.410193 0.430927 3.76114 66 24 1
0.611183 0.411835 3.43361 210 180 49
0.326699 0.459939 3.57065 158 145 48
0.602806 0.425841 3.37079 216 204 107
0.337002 0.493435 3.65551 186 162 90
0.568497 0.454308 3.21621 210 158 7
0.260159 -0.737671 3.61279 208 146 148
0.426498 -0.252626 3.91474 206 128 124
0.261243 -0.161147 3.57325 156 133 82
0.541601 -0.101987 3.77582 159 168 179
0.490348 -0.0380172 3.67744 164 176 180
0.285064 0.0276962 4.24656 156 90 91
0.195177 0.0478815 4.07896 172 86 92
0.219605 0.104648 4.85725 212 178 149
0.410463 0.108077 4.37951 196 164 172
0.551297 0.141595 3.77377 206 218 221
0.121888 0.205374 4.143 140 58 44
0.369296 0.217209 4.72146 132 116 57
0.262325 0.361912 3.90807 198 204 161
0.259051 0.418418 3.80036 112 70 0
0.27978 0.603224 3.33824 76 36 0
0.466543 0.595098 3.2739 211 172 28
0.495513 -0.231628 3.68502 188 56 86
0.289564 0.0111597 4.22849 183 186 190
0.200868 0.0397643 4.20953 172 105 111
0.254631 0.0332659 4.59424 232 191 175
0.195094 0.089981 4.53943 137 82 68
0.357205 0.0877884 4.6755 250 215 230
0.382829 0.192579 4.24077 78 45 10
0.193711 0.218159 4.54227 146 27 16
0.404129 0.195609 3.99185 110 90 40
0.222898 0.235402 4.05747 180 170 164
0.587801 0.34092 3.32494 196 98 4
0.465542 -0.226533 3.77839 159 157 160
0.558403 -0.077537 4.10628 164 174 180
0.285476 0.0232365 4.51994 208 208 186
0.336849 0.0534047 4.64135 220 183 188
0.424396 0.106444 4.47528 219 197 202
0.148191 0.170737 4.25431 182 136 97
0.195277 0.179432 4.71598 199 151 108
0.325424 0.197077 4.89412 201 160 168
0.287439 0.210102 4.6617 186 7 18
0.409253 0.21708 5.17146 130 114 56
0.390869 0.32339 3.84578 102 52 10
0.333713 0.505647 3.79122 176 208 190
0.261095 0.576198 3.20016 122 80 12
0.317154 -0.277428 3.62693 188 79 29
0.307061 0.0261061 4.34329 184 68 64
0.116132 0.137408 4.25735 200 171 162
0.395077 0.19126 3.94064 126 105 46
0.310345 0.218519 4.05959 170 163 131
0.372241 0.412463 3.8001 172 127 4
0.617016 0.381791 3.40071 240 214 107
0.328336 -0.420097 3.83126 226 134 70
0.47325 -0.214149 3.58754 232 193 216
0.371515 0.0626536 4.22097 209 147 146
0.400159 0.105419 4.28839 212 186 192
0.42158 0.144824 4.28499 186 182 166
0.308113 0.213902 4.7566 140 38 42
0.205803 0.226495 4.60016 118 18 2
0.606 0.378937 3.40533 118 76 2
0.602578 0.417698 3.33524 125 110 56
0.322485 -0.4968 3.71006 196 56 56
0.166016 0.0601084 4.12307 162 101 91
0.357243 0.0929596 4.67307 211 154 176
0.373421 0.203877 4.73552 218 214 206
0.320725 0.217576 4.81617 206 182 180
0.606881 0.415196 3.38265 88 60 2
0.516311 0.447745 2.71457 132 86 12
0.250807 -0.70035 3.48995 174 102 98
0.172186 0.0558844 4.25432 158 96 88
0.210607 0.069754 4.31736 166 104 88
0.373263 0.132247 4.57257 216 114 156
0.210694 0.222609 4.53177 203 84 84
0.231192 0.233476 4.66878 134 59 54
0.538778 0.297177 4.04971 82 50 7
0.331407 0.462353 3.59909 152 144 57
0.595843 0.421898 3.33902 214 207 125
0.583883 0.529952 3.1179 84 36 1
0.262857 -0.739071 3.63392 180 106 102
0.261607 0.0812525 3.71143 182 124 131
0.396002 0.0860532 4.60312 244 239 244
0.381837 0.0986311 4.63975 240 204 226
0.536421 0.176225 3.89072 198 168 40
0.54834 0.25494 3.18181 150 108 42
0.55192 0.436458 3.13676 212 191 102
0.550758 0.45229 3.11021 194 169 108
0.590809 0.482062 3.25935 132 96 0
0.268458 -0.723897 3.58669 160 66 70
0.498259 -0.170323 3.91182 158 164 155
0.156158 0.152257 4.57825 182 87 54
0.191531 0.194606 4.58909 181 150 103
0.544728 0.172445 3.95977 201 168 28
0.29421 0.212603 4.71375 182 10 21
0.392664 0.197472 3.87991 100 81 37
0.563749 0.455647 3.20271 196 143 4
0.439234 -0.252068 3.69999 210 92 131
0.127077 0.205179 4.22513 136 76 62
0.408554 0.312693 3.92393 59 30 8
0.59137 0.480186 3.27557 132 98 0
0.472242 0.431379 2.55507 128 84 13
0.401814 0.630838 3.48493 147 112 40
0.244405 -0.66339 3.38075 158 52 60
0.3349 -0.296781 3.7724 196 88 42
0.49093 -0.16762 3.88168 192 198 188
0.398221 0.0765857 4.34483 172 72 80
0.567461 0.134495 3.85946 203 215 218
0.586513 0.259076 3.42083 220 193 22
0.584985 0.406565 3.29694 142 108 24
0.581241 0.526422 3.11652 180 140 61
0.45774 0.678493 3.82104 138 96 20
0.256224 -0.0345377 5.59858 190 158 152
0.530936 0.311603 3.88735 80 34 17
0.320664 0.329086 3.85024 110 54 12
0.481996 0.609685 3.37564 188 148 48
0.263548 0.0291493 4.14602 162 123 127
0.306838 0.219157 4.70585 177 116 118
0.221368 0.234913 4.51559 138 80 69
0.318983 0.329418 3.83785 116 68 32
0.385554 0.36412 3.78264 85 28 2
0.599984 0.410532 3.37969 143 114 22
0.37017 -0.412843 3.86878 199 71 66
0.184082 0.094821 4.40897 151 101 85
0.402293 0.312374 3.90453 122 96 34
0.25753 -0.652543 3.59002 134 26 24
0.34526 0.0649561 4.71151 174 90 108
0.475055 0.204257 3.92366 189 162 88
0.557541 0.380413 3.17285 227 196 88
0.598605 0.417952 3.30423 182 174 132
0.241304 0.557714 3.10002 144 93 10
0.193729 0.117288 4.41075 218 181 153
0.598484 0.425993 3.35463 214 197 92
0.498243 -0.235187 3.69805 188 50 84
0.19845 0.0470674 4.14815 170 83 92
0.218055 0.142872 4.30312 209 78 35
0.313705 0.164217 4.92585 183 6 26
0.610619 0.352989 3.47485 234 198 90
0.434759 -0.242906 3.84698 158 74 84
0.399335 -0.0587406 4.14079 191 182 167
0.387755 0.373954 3.81507 173 84 29
0.327676 0.206703 4.93327 190 125 132
0.605436 0.415558 3.38414 94 71 7
0.266169 0.167108 4.30428 207 103 116
0.181964 0.219333 4.37205 152 38 34
0.276557 0.601257 3.32584 80 38 2
0.34246 0.153434 4.92976 193 102 123
0.395374 0.407353 3.74577 56 14 6
0.481358 -0.211031 3.63802 230 202 218
0.258065 -0.659034 3.34671 161 96 107
0.251402 -0.606166 3.40427 180 79 60
0.396599 0.0973048 4.65516 246 188 210
0.256479 -0.64527 3.43518 178 48 38
0.483273 -0.208541 3.58505 172 66 98
0.543172 0.145777 3.72716 190 194 184
0.45126 0.21972 3.97307 171 138 11
0.20901 0.0677253 4.78456 125 64 58
0.470603 0.599663 3.30098 189 150 42
0.378886 0.202938 4.77468 232 222 208
0.422641 -0.22021 3.88323 106 104 100
0.317043 0.211063 4.93482 170 22 36
0.29979 0.0254943 4.31448 183 66 69
0.361968 0.136457 4.55251 222 139 184
0.609847 0.41182 3.43793 204 173 44
0.348767 0.490471 3.65651 169 124 2
0.248652 -0.165227 3.6192 148 58 48
0.180499 0.0364789 4.45205 200 155 156
0.361947 0.222017 4.63413 146 140 93
0.405671 0.110206 4.5274 200 42 80
0.290995 -0.705408 3.95309 162 50 34
0.391929 -0.266065 3.8204 218 66 54
0.447211 -0.255387 3.76181 238 122 164
0.461263 -0.226771 3.71935 167 100 110
0.313131 -0.213255 3.85674 50 16 0
0.440075 -0.229539 3.93588 114 114 116
0.44334 -0.226926 3.94216 87 88 86
0.358157 -0.211841 4.00744 66 52 25
0.285441 -0.16641 3.72391 205 200 145
0.477361 -0.150316 3.76592 140 144 134
0.417762 -0.159456 4.18989 98 86 67
0.464805 -0.151107 4.10467 184 186 176
0.574713 -0.120043 3.9738 136 147 160
0.423678 -0.0592359 4.16357 109 68 45
0.139385 0.0923704 4.60695 212 143 115
0.161169 0.144621 4.85237 191 106 73
0.155271 0.156831 4.80167 135 44 24
0.526302 0.17414 3.88283 178 144 5
0.140837 0.213443 4.67409 96 41 15
0.372784 0.194102 4.85056 234 248 247
0.593545 0.259022 3.38437 95 52 3
0.199423 0.295801 3.27944 116 87 18
0.290193 0.382804 3.94757 129 144 122
0.27723 0.406028 3.97569 116 96 33
0.262444 0.4323 3.91583 93 56 0
0.591235 0.408239 3.31749 74 50 0
0.590592 0.413905 3.32592 215 206 129
0.595352 0.462803 3.30472 178 155 106
0.55402 0.47687 2.88841 111 68 4
0.341018 -0.531659 3.85448 197 61 63
0.39707 -0.286642 4.01 198 40 42
0.429814 -0.20852 3.6067 172 102 115
0.473113 -0.246198 3.84585 148 54 70
0.451641 -0.207136 3.59586 145 76 88
0.475155 -0.221164 3.68136 215 202 218
0.387079 -0.231822 3.9946 188 166 124
0.428412 -0.227056 3.94408 71 68 68
0.358867 -0.218895 3.96395 52 42 20
0.444616 -0.164159 4.14589 158 158 149
0.423544 -0.0597576 4.16192 130 86 56
0.438236 -0.0503508 4.14905 132 96 90
0.230737 0.02308 4.49349 207 170 154
0.351811 0.0325509 4.69307 220 181 186
0.407513 0.0732631 4.68599 196 134 148
0.394036 0.194444 4.71165 168 56 72
0.384861 0.197718 4.69153 177 122 110
0.422741 0.210072 3.89583 107 94 58
0.412233 0.301423 3.89228 151 124 52
0.579882 0.282707 3.10515 156 130 90
0.544777 0.355683 3.85839 237 208 172
0.597794 0.352014 3.42616 238 194 68
0.528957 0.395337 3.73412 213 186 78
0.585566 0.413162 3.29105 215 206 129
0.580612 0.435564 3.26774 203 156 10
0.566093 0.489059 2.95573 112 66 4
0.594205 0.552918 3.27261 101 57 2
0.410741 0.634224 3.47168 78 32 0
0.485927 -0.220631 3.68072 129 51 81
0.291132 -0.191251 3.73152 58 24 1
0.284363 -0.166524 3.70788 192 186 132
0.264727 -0.0966211 4.12524 156 156 148
0.486934 -0.0572868 4.04454 134 138 131
0.142711 0.0876621 4.65544 190 154 122
0.131971 0.113504 4.25895 157 114 106
0.530791 0.0987065 3.39358 195 172 15
0.397164 0.0778532 4.58177 234 206 215
0.411194 0.0846787 4.72483 245 228 235
0.427245 0.151689 4.42325 227 200 200
0.343772 0.209415 5.15067 214 184 187
0.517558 0.2926 3.94296 174 141 42
0.576619 0.282538 3.0862 144 120 92
0.409623 0.373859 3.85658 82 45 50
0.591405 0.478138 3.25973 128 96 1
0.576215 0.488233 2.99237 102 59 5
0.582693 0.573065 3.33599 104 68 2
0.343128 -0.256949 3.83711 189 56 18
0.481047 -0.209195 3.59347 168 64 96
0.251276 -0.0571313 3.59695 162 160 141
0.4802 -0.052372 3.97794 163 163 151
0.438612 -0.0493782 4.13531 132 96 90
0.12823 0.101787 4.58796 177 126 124
0.399616 0.0849711 4.61328 229 236 240
0.510824 0.175096 3.78709 200 167 50
0.380373 0.199837 4.87397 219 226 222
0.574872 0.257403 3.29708 102 60 14
0.275275 0.368269 4.0922 160 162 113
0.400484 0.371765 3.85352 54 12 10
0.517952 0.406688 3.6913 80 33 2
0.595131 0.39233 3.36762 200 162 52
0.593023 0.412387 3.26587 196 174 108
0.225635 -0.596507 3.25626 216 195 204
0.459946 -0.186484 3.4403 164 58 90
0.259184 -0.159853 3.54359 149 116 75
0.428745 -0.16426 4.14115 210 185 168
0.217866 0.0238 4.42994 170 82 85
0.253089 0.0316737 4.59518 212 138 124
0.276502 0.0214883 4.74931 235 193 178
0.18261 0.0396664 4.83464 204 170 142
0.407477 0.100973 4.35821 219 180 186
0.501978 0.291495 3.83975 102 68 12
0.520356 0.312222 3.80094 84 42 27
0.555978 0.280672 2.9868 155 130 93
0.52701 0.397104 3.71662 220 200 80
0.605361 0.484875 3.33395 132 96 0
0.566603 0.488424 2.94894 142 102 26
0.253721 -0.743772 3.60636 222 195 197
0.482917 -0.215734 3.62491 176 52 87
0.254192 -0.147571 3.46418 149 116 75
0.218728 0.0245188 4.34515 166 90 94
0.517981 0.176149 3.83568 176 144 4
0.33095 0.514213 3.79874 177 188 146
0.585624 0.461134 3.29522 204 150 1
0.403514 0.628099 3.47907 165 126 32
0.247196 -0.178079 3.64969 144 30 22
0.355558 -0.23054 4.04091 40 30 14
0.224257 0.0135596 4.59853 164 90 92
0.289586 0.011837 4.55481 204 195 176
0.245406 0.0430094 4.88117 175 112 102
0.510085 0.175379 3.78465 203 172 58
0.213123 0.210879 4.86418 140 8 10
0.340327 0.220414 4.46423 130 103 42
0.596777 0.25705 3.41749 152 108 36
0.410775 0.300808 3.88022 174 148 60
0.518741 0.313122 3.78858 96 45 14
0.382202 0.39455 3.77435 159 44 3
0.588136 0.354923 3.42978 227 194 45
0.394111 0.41854 3.69612 51 12 1
0.584974 0.404363 3.29394 73 48 2
0.342772 0.487657 3.74923 177 197 152
0.58788 0.47183 3.25618 132 104 38
0.333668 -0.25034 3.75552 178 36 14
0.433089 -0.229217 3.97352 94 91 99
0.388847 -0.138483 3.94807 156 132 80
0.126393 0.106531 4.40737 154 103 97
0.167673 0.162854 4.68853 186 148 106
0.535461 0.143138 3.68792 187 198 200
0.536702 0.172742 4.03196 202 179 88
0.556093 0.25503 3.22003 205 160 38
0.498962 0.299878 3.73423 72 44 43
0.597912 0.338782 3.42901 222 94 0
0.582583 0.360624 3.41625 226 198 4
0.246946 0.426255 3.76593 117 66 1
0.340292 0.483237 3.73633 171 204 186
0.298985 -0.676242 3.65648 204 72 72
0.27742 -0.692345 3.75677 180 70 52
0.341383 -0.214297 3.91015 90 74 58
0.458105 -0.0679995 4.16832 226 189 196
0.379361 0.202598 4.72182 215 193 167
0.534853 0.398195 3.77531 220 195 92
0.278324 -0.729117 3.59324 166 104 112
0.414543 -0.244918 3.87993 158 63 74
0.476298 -0.201726 3.54515 133 84 112
0.181959 0.0422054 4.62527 216 166 142
0.349757 0.0342399 4.77182 184 142 144
0.144497 0.202478 4.75589 138 69 36
0.591 0.372928 3.34111 120 72 2
0.441085 -0.246798 3.8736 138 30 46
0.431913 -0.0570954 4.12463 200 183 169
0.436007 -0.0484237 4.12418 136 96 94
0.276873 0.351144 3.99544 132 150 117
0.273446 0.368711 4.06615 176 185 143
0.301419 -0.702372 3.76246 177 46 42
0.152677 0.20231 4.67057 175 138 91
0.39303 0.200831 3.99146 98 76 30
0.409359 0.433043 3.7499 74 34 4
0.410887 0.631329 3.47801 135 91 21
0.434761 -0.264333 3.98824 164 72 82
0.357624 -0.223633 3.90978 201 181 134
0.592757 0.465279 3.29596 204 183 128
0.267019 0.572679 3.16291 85 49 4
0.475091 -0.052462 3.95826 138 138 128
0.237206 0.112915 4.61145 228 200 168
0.41173 0.304123 3.89577 104 74 26
0.585357 0.368777 3.31468 166 115 22
0.340487 -0.252168 3.78316 202 62 30
0.127203 0.104265 4.46531 162 102 102
0.474294 -0.219589 3.5979 177 34 66
0.386517 -0.203029 4.01862 172 150 102
0.246856 0.0850144 4.50803 209 211 184
0.343594 0.403868 3.83062 157 54 4
0.597055 0.406388 3.36145 76 46 1
0.592288 0.475469 3.30102 179 144 6
0.159533 0.157879 4.81703 156 90 59
0.267063 -0.670303 3.65031 164 79 64
0.33346 0.211222 4.92371 208 178 182
0.521812 0.30081 3.80917 216 179 43
0.466437 -0.225453 3.78914 184 190 184
0.235684 -0.00198819 4.86241 158 95 99
0.527285 0.312365 3.85101 94 48 24
0.415543 0.0996324 4.4479 192 148 152
0.170958 0.154087 5.03282 184 140 98
0.538245 0.357513 3.81284 201 192 180
0.534906 0.405395 3.82651 78 32 12
0.613118 0.420375 3.4002 168 147 100
0.291326 -0.184598 3.83585 184 177 125
0.179418 0.0342936 4.55902 168 124 123
0.397952 0.42388 3.73191 68 31 2
0.597679 0.414972 3.3426 90 70 28
0.528596 0.14848 3.60666 167 168 144
0.577773 0.258456 3.3015 98 60 2
0.394625 0.412008 3.78928 92 48 21
0.586642 0.474534 3.24171 142 106 1
0.33908 -0.302173 3.80043 196 92 38
0.187991 0.17458 4.44079 195 150 106
0.370147 0.186969 4.65343 226 238 239
0.330645 0.614388 3.3807 112 72 7
0.402818 0.629938 3.48782 183 139 16
0.285841 -0.179294 3.81327 180 173 122
0.39324 0.165394 4.34032 192 9 36
0.440398 0.224824 3.89632 166 136 10
0.492597 0.292665 3.79612 146 118 32
0.476603 -0.281068 3.92061 222 83 120
0.25763 -0.0848208 3.99776 158 159 145
0.259179 0.0403314 3.94532 148 106 101
0.369141 0.0555067 4.26719 201 130 126
0.198523 0.105239 4.55195 170 117 91
0.39065 0.0983631 4.67926 205 128 154
0.573116 0.130412 3.90903 172 185 186
0.352042 0.154132 4.97987 220 186 192
0.332414 0.170148 4.90363 224 196 202
0.197907 0.212138 4.59298 130 10 3
0.386809 0.19778 4.49754 172 113 48
0.424267 -0.212486 3.90004 150 147 136
0.56705 0.0879206 3.58819 193 168 10
0.363861 0.0892414 4.71572 215 159 174
0.173729 0.167851 4.49735 190 123 84
0.58806 0.258562 3.35163 116 74 4
0.272555 -0.700135 3.5117 136 65 72
0.586148 -0.130761 4.04751 156 165 176
0.255918 0.0471941 3.85157 162 108 104
0.223709 0.223283 4.74295 156 42 40
0.179287 0.23556 3.37639 180 158 152
0.580482 0.37083 3.28383 142 92 8
0.609296 0.417222 3.39368 93 73 19
0.245169 -0.704395 3.54206 228 192 195
0.243309 -0.0632166 3.79902 178 178 173
0.279529 0.0286312 4.17653 162 116 111
0.342376 0.161111 4.95803 184 131 142
0.223771 0.412881 3.55296 130 82 0
0.334099 0.465959 3.65125 175 174 98
0.5856 0.463953 3.25338 207 188 132
0.587501 0.519562 3.13976 206 174 22
0.403518 0.632313 3.50534 165 128 32
0.253954 -0.636816 3.55055 133 36 24
0.322916 -0.2277 4.01271 63 38 6
0.519787 0.17644 3.84141 181 150 18
0.397729 0.196926 3.95875 101 79 35
0.191117 0.222958 4.52202 132 33 18
0.340451 0.407177 3.75152 158 108 22
0.621366 0.548027 3.29013 112 66 14
0.283002 -0.0921176 3.9105 166 157 122
0.170438 0.0522279 4.19792 186 144 147
0.174231 0.0576767 4.52199 201 172 137
0.25588 0.0982731 3.59736 233 208 212
0.265755 0.0663702 4.81799 222 207 190
0.383599 0.163733 4.71024 196 38 80
0.351137 0.315206 3.74256 166 128 1
0.595775 0.411491 3.24983 216 190 110
0.500986 -0.248645 3.76237 190 50 80
0.303762 -0.0304255 3.85431 133 116 84
0.178101 0.0473529 4.22073 188 136 139
0.527372 0.290283 3.99388 222 192 43
0.555647 -0.0800449 4.10014 174 182 183
0.191549 0.105811 3.7261 202 204 176
0.402885 0.136443 4.26679 178 124 138
0.179286 0.211625 4.13972 167 67 52
0.391299 0.194375 3.91193 123 101 49
0.373762 0.132907 4.71356 220 127 174
0.189486 0.218205 4.58412 190 100 78
0.585623 0.349874 3.32653 224 162 41
0.609892 0.417411 3.32778 228 204 143
0.616038 0.421214 3.43138 145 127 62
0.579532 0.4953 3.00552 106 62 2
0.26508 -0.65431 3.6266 150 54 43
0.245847 -0.156035 3.58898 130 71 54
0.37943 0.0954175 4.70196 223 158 183
0.537525 0.144099 3.69946 232 240 232
0.207342 0.0388547 4.26512 170 89 88
0.219369 0.235661 4.00609 184 172 162
0.349947 0.494213 3.64835 167 122 8
0.299491 -0.0240711 3.80062 134 118 85
0.260828 0.20747 4.45294 174 8 12
0.405109 0.426443 3.69915 58 17 0
0.233514 -0.65655 3.35125 160 83 76
0.284217 -0.756818 3.68213 170 120 128
0.550373 0.343817 3.95987 104 38 14
0.471205 -0.202575 3.52023 142 64 92
0.45087 -0.0652028 4.14908 200 190 186
0.574979 0.572174 3.28462 94 59 0
0.270106 -0.170182 3.61783 124 92 46
0.305653 0.163002 4.76138 185 13 32
0.621208 0.35975 3.47601 160 100 4
0.263051 0.0842015 4.6394 248 210 196
0.523186 0.591379 3.31911 190 155 43
0.278356 -0.723691 3.58722 138 52 64
0.582809 0.260303 3.39925 217 189 39
0.25845 -0.707793 3.52871 169 86 78
0.342992 -0.214776 3.93035 116 100 69
0.545661 0.588128 3.33038 159 122 42
0.429564 -0.145982 4.13136 104 100 96
0.384501 0.395531 3.83822 178 61 6
0.585006 0.41903 3.27781 224 218 162
0.167607 0.160531 4.73456 158 106 64
0.596625 0.41518 3.2769 222 202 142
0.596347 0.422229 3.31803 143 134 92
0.566093 0.560094 3.24167 114 78 4
0.591363 0.407269 3.35122 198 169 51
0.535272 0.14627 3.66425 165 164 141
0.380961 0.412276 3.85707 170 112 5
0.396863 -0.27917 3.94948 201 32 49
0.596812 0.417183 3.3247 128 112 59
0.140026 0.201162 4.65556 120 34 30
0.578626 0.461194 3.24991 196 150 20
0.373123 0.392249 3.68868 168 53 6
0.335927 0.0514932 4.44188 198 170 174
0.261088 0.0712368 4.75902 212 210 188
0.232935 -0.608744 3.27513 206 154 168
0.263719 -0.645785 3.44754 212 70 68
0.278607 -0.708756 3.76771 190 92 81
0.279168 -0.706101 3.77063 120 26 10
0.275205 -0.684623 3.73194 184 66 46
0.240038 -0.173476 3.70097 126 68 63
0.422043 -0.149039 4.06164 202 190 180
0.496981 -0.0635096 4.10423 136 139 139
0.34377 0.118609 4.88358 186 32 30
0.163412 0.144737 4.84436 198 103 76
0.529913 0.15075 3.60064 135 120 32
0.167184 0.155128 4.90454 187 152 112
0.143403 0.20187 4.81102 162 96 66
0.382562 0.201599 3.89106 98 76 30
0.393353 0.200612 4.856 221 190 156
0.277533 0.209589 4.95557 240 94 103
0.420871 0.21184 3.88196 108 93 60
0.38751 0.3195 3.81419 72 32 8
0.313819 0.361951 4.13469 126 178 189
0.269602 0.375071 4.17947 134 123 52
0.529956 0.378693 3.75258 229 146 26
0.291296 0.418005 4.09569 124 125 88
0.422265 0.644327 3.55483 190 138 50
0.275627 -0.696702 3.72523 156 44 36
0.344258 -0.211549 3.97874 50 36 22
0.432245 -0.157038 4.12609 226 218 206
0.556489 -0.100339 3.85889 214 228 236
0.486326 -0.0552653 4.00561 141 143 139
0.225147 0.0284836 4.15789 154 116 116
0.129608 0.0969594 4.5628 148 76 66
0.380088 0.111164 4.89466 226 116 154
0.372267 0.1502 5.019 194 150 172
0.492843 0.183413 3.79737 184 164 46
0.139145 0.214289 4.46013 100 38 32
0.236192 0.222005 4.90624 194 75 60
0.202625 0.29684 3.37413 110 66 20
0.310765 0.363028 4.11014 128 177 182
0.516155 0.3528 3.70218 129 108 130
0.288402 0.412458 4.02148 128 124 79
0.369234 0.405035 3.72878 182 114 18
0.209702 0.413613 3.56976 132 84 0
0.26458 0.432028 3.91143 116 82 19
0.598779 0.401378 3.15718 216 194 152
0.590661 0.458895 3.28132 187 161 110
0.595481 0.556563 3.29792 118 74 6
0.570378 0.560562 3.25616 106 68 2
0.420989 -0.247699 3.75169 216 90 125
0.43961 -0.223009 3.72646 208 178 174
0.56438 -0.105955 3.92819 218 230 238
0.231054 0.0270826 4.40936 205 158 145
0.305084 0.00995934 4.86155 243 181 180
0.527694 0.100462 3.38001 203 180 22
0.40326 0.0892026 4.61497 248 230 241
0.4272 0.14796 4.43753 204 173 174
0.505114 0.176455 3.7284 195 162 30
0.415547 0.189168 4.92533 157 38 37
0.582268 0.259294 3.34875 128 90 39
0.599405 0.421974 3.34032 168 160 116
0.58798 0.437528 3.30535 190 146 23
0.600479 0.561453 3.33396 118 74 6
0.330495 -0.347654 3.78074 216 135 62
0.277046 -0.238842 3.84284 156 40 29
0.274508 -0.10268 4.15398 206 208 183
0.407871 -0.0559917 4.06894 150 110 84
0.218767 0.0264179 4.38968 174 100 102
0.303963 0.012598 4.6416 221 204 190
0.264818 0.0602727 4.71352 188 103 108
0.479526 0.182393 3.49368 200 172 51
0.333943 0.212905 5.12402 168 48 60
0.424577 0.219742 3.91653 192 178 116
0.257358 0.42682 3.82758 130 86 24
0.512434 0.413989 3.68724 76 26 2
0.593829 0.439997 3.34281 201 154 17
0.394857 0.616617 3.39297 182 136 31
0.275365 -0.662896 3.615 158 60 50
0.44901 -0.237878 3.83815 216 186 181
0.461839 -0.221989 3.74585 143 138 138
0.394461 -0.146557 4.03382 118 100 58
0.145153 0.0876803 4.48215 180 160 126
0.418696 0.0965143 4.79111 192 55 82
0.394941 0.108646 5.15233 226 122 162
0.134273 0.20815 4.78438 136 32 28
0.392667 0.198367 3.976 108 86 47
0.520244 0.312034 3.80414 94 51 34
0.285143 0.363206 4.20027 136 152 124
0.277522 0.370851 4.14227 202 206 158
0.402964 0.368923 3.7758 87 56 59
0.600321 0.346406 3.39696 200 109 16
0.215721 0.420528 3.65848 126 75 0
0.591531 0.411385 3.30745 146 135 90
0.591737 0.474753 3.27043 140 103 0
0.597753 0.558212 3.31057 118 74 6
0.506998 -0.0398836 3.74521 168 180 183
0.134714 0.207384 4.7583 139 32 28
0.207 0.217779 4.73619 154 26 16
0.26628 0.361992 3.90021 170 172 118
0.567138 0.337458 3.20474 202 112 16
0.219742 0.42613 3.72733 126 76 0
0.522056 0.409376 3.74713 88 42 3
0.344717 -0.261338 3.81773 179 44 10
0.427506 -0.254898 3.76394 202 70 106
0.1739 0.044606 4.67718 192 178 141
0.386726 0.18604 4.84007 236 246 246
0.393662 0.194227 3.92451 128 104 58
0.571308 0.395393 3.05075 219 204 174
0.43092 -0.186145 3.48072 122 104 110
0.371851 -0.252338 4.05832 199 150 116
0.208839 0.0292738 4.31395 168 88 92
0.182027 0.0382835 4.40293 179 122 128
0.363108 0.128633 4.59328 216 113 152
0.439341 0.133931 4.62572 203 170 170
0.406122 0.164737 4.7456 198 12 48
0.378285 0.182464 4.70406 219 232 232
0.380121 0.423445 3.97117 163 92 1
0.399916 0.423026 3.65158 57 16 2
0.336213 -0.351927 3.83072 232 142 68
0.562939 -0.10303 3.90694 230 244 251
0.362382 0.0513298 4.23728 224 160 149
0.130166 0.090273 4.57776 143 86 78
0.42827 0.151998 4.41412 226 210 196
0.368589 0.18696 3.84167 162 116 74
0.325335 0.215868 4.94424 134 63 74
0.350213 0.323522 3.79315 199 136 18
0.523345 0.36155 3.83246 59 22 39
0.611827 0.413646 3.45033 92 63 12
0.604088 0.400653 3.18728 216 193 150
0.34139 0.485768 3.62724 198 160 26
0.334014 0.476744 3.44047 153 103 0
0.309003 -0.444745 3.7357 195 101 44
0.181813 0.0406329 4.72396 227 174 150
0.408812 0.101201 4.34997 215 166 171
0.417595 0.166519 4.46939 177 32 48
0.448824 0.174824 4.88129 164 104 72
0.20307 0.302059 3.39777 74 36 0
0.59303 0.371389 3.34625 130 82 6
0.43403 -0.148081 4.05866 132 133 128
0.178242 0.0484913 4.35076 155 98 90
0.20917 0.0714389 4.86886 157 103 80
0.365616 0.154394 4.90955 242 221 238
0.233463 0.221711 4.89547 180 52 55
0.511955 0.359487 3.75468 65 32 44
0.608428 0.399873 3.45041 193 157 35
0.602327 0.466813 3.36497 188 147 30
0.562756 0.574898 3.30336 100 56 1
0.322921 0.600724 3.24351 68 28 0
0.438542 -0.222128 3.71731 203 178 176
0.553219 -0.104474 3.81005 147 154 167
0.547544 -0.0948063 3.79383 217 230 238
0.202835 0.0762108 4.57825 122 52 38
0.33779 0.0611494 4.57306 196 130 139
0.275452 0.20614 5.00959 202 60 62
0.59034 0.343332 3.34532 184 100 18
0.610368 0.404622 3.23486 217 196 138
0.302329 -0.424694 3.60261 200 124 54
0.4402 -0.251437 3.72581 208 101 141
0.480251 -0.209888 3.59503 163 60 88
0.545217 -0.0989964 3.74893 148 156 169
0.180439 0.0394496 4.45483 157 84 87
0.231985 0.0500995 4.80704 186 148 126
