ply
format ascii 1.0
element vertex 1388
property float x
property float y
property float z
property uchar red
property uchar green
property uchar blue
end_header
0.835532 1.87232 10.163 98 50 36
2.84266 2.08164 11.2274 90 70 66
3.29218 2.49012 10.0794 76 48 36
3.56876 2.59702 9.5762 90 67 55
3.66688 2.57698 9.55696 145 137 134
1.72009 -1.05897 11.8862 124 131 90
-2.9041 -0.581918 11.568 88 64 24
-1.32818 -0.280683 11.3518 69 50 30
1.00628 -0.106348 10.6641 38 42 16
2.43168 -0.361211 13.1708 146 154 113
1.36615 0.303017 11.1322 120 120 120
-0.0115409 1.28589 9.97263 133 92 59
2.80576 1.03237 10.875 36 19 12
2.97975 1.01179 10.8475 146 121 108
1.20689 1.25831 10.0083 82 50 40
2.76547 3.37457 11.838 80 43 35
2.32315 3.66764 12.37 84 46 44
2.2975 3.83796 12.2257 115 84 78
3.75314 -1.27771 12.2372 73 66 26
3.64547 -0.910706 12.2887 89 86 50
3.61575 -0.334585 10.6409 94 86 58
-0.215105 1.01525 10.4303 27 18 10
2.94174 0.773633 11.926 126 81 58
-0.557941 1.40377 10.4495 158 135 107
-0.0585042 2.37641 10.7516 126 122 98
3.61664 2.5537 9.30243 82 54 39
2.12235 -0.158414 12.4855 69 52 39
3.01665 0.0814667 11.5465 125 104 85
2.65595 1.43468 9.64625 148 123 120
3.2285 0.0834392 11.9649 150 150 116
-1.64256 -0.798582 11.4197 109 108 58
2.15999 -0.583659 9.23129 90 98 88
-1.12523 -0.179387 11.0757 140 128 86
1.97839 -0.337151 13.3609 132 114 102
0.858878 0.555965 8.7424 92 95 69
-0.485538 0.803372 8.11784 74 77 50
3.53809 0.0341078 10.9925 114 71 54
1.02193 0.526638 10.993 60 66 51
-0.948429 1.26447 7.40292 88 88 66
3.38774 0.60024 11.3836 96 69 54
1.53754 1.06001 9.73034 46 34 31
1.22161 1.17187 8.14084 106 108 76
1.67257 1.12224 9.67672 44 20 8
3.24643 0.882757 11.1386 90 43 16
0.559122 1.40571 10.048 103 81 70
0.90021 1.37533 8.00781 114 106 78
0.68634 1.40949 9.87365 47 24 13
1.62482 1.2641 9.54615 50 20 11
3.14147 1.10024 10.0892 56 28 16
3.32055 1.10233 11.0803 78 42 30
3.01652 1.25687 9.90503 134 118 103
0.545654 1.67437 9.96016 86 46 26
3.13812 1.2199 11.112 50 22 14
3.07311 1.30172 9.87955 155 138 125
3.11769 1.3121 10.7829 58 34 29
1.15405 1.6434 7.73849 100 102 80
2.71974 1.4591 9.72705 132 118 108
1.06732 1.76813 7.90567 143 146 128
2.85818 1.5056 9.55232 80 68 50
2.97136 1.59951 11.0842 114 95 93
3.01913 2.07124 12.3268 108 92 84
2.2279 2.56306 10.9336 122 96 92
2.19569 2.7602 11.0716 124 106 100
1.84455 2.85718 10.9053 93 49 42
2.12396 3.27835 11.4506 118 93 90
2.62599 3.56222 12.8974 116 86 78
2.57465 3.58191 12.7655 73 40 36
2.57954 3.56168 12.5907 120 94 90
2.57099 3.67286 13.0077 79 51 45
2.44353 3.60609 12.3659 80 54 54
2.51449 3.67059 12.7196 80 60 58
2.04723 3.69762 11.7872 120 98 96
1.49686 3.93944 11.6755 127 88 78
1.96223 4.02468 12.181 100 64 57
-1.77987 -2.1425 9.69352 60 58 30
2.44383 -0.906208 8.52948 92 95 90
-2.12616 -0.873514 11.3654 134 131 78
-1.17928 -0.230069 11.2476 106 90 54
-1.06083 -0.0309404 10.7716 105 88 54
2.79309 -0.493526 12.533 126 141 102
0.367698 0.506584 9.30905 73 76 58
1.38921 0.202706 11.2737 96 100 95
3.37038 0.494387 11.8059 105 79 52
3.43201 0.591986 11.231 94 66 50
1.59192 1.02534 9.98348 40 24 14
1.20814 1.17537 8.16362 107 109 78
1.26773 1.14084 9.98154 26 12 10
2.60249 0.924974 10.4238 12 8 2
3.10382 0.891433 10.9749 100 52 22
3.23974 0.87506 11.1534 90 46 20
0.73739 1.36293 9.74439 77 52 40
3.30453 0.918744 11.9796 59 32 20
2.8765 1.01819 10.8528 50 27 15
1.66489 1.24726 9.53769 96 66 56
3.19757 1.0074 12.6833 132 122 108
3.21313 1.06482 12.5945 78 64 50
0.523513 1.72692 10.0837 118 92 82
3.12851 1.26772 10.5801 92 60 54
3.07461 1.33427 10.8423 135 104 99
2.6647 1.41255 9.70978 110 94 78
2.70136 1.47174 9.78146 141 124 116
3.12023 1.54718 12.8889 66 51 34
2.973 1.55312 11.0982 118 96 92
2.98412 2.16592 12.2658 54 32 25
0.961206 2.32782 7.203 82 86 60
2.2254 2.54928 10.9268 111 85 80
2.17634 2.58888 10.9392 47 18 10
2.24343 2.58839 10.9943 40 16 15
1.52683 3.10568 11.0318 118 86 76
1.48904 3.61242 11.4674 120 94 92
1.55062 4.0522 11.8491 96 49 38
1.49566 4.07339 11.8402 80 40 34
1.65127 4.0686 12.0047 90 52 44
1.96818 4.01386 12.124 74 40 34
1.91098 4.07974 12.0678 83 46 38
0.0120293 -2.67362 11.6315 90 98 54
-1.25785 -2.11216 10.0625 102 102 58
2.44135 -0.900873 8.53008 88 92 86
-2.73138 -0.59775 11.4576 118 102 52
1.70062 -1.07759 11.8965 138 144 110
0.153211 -0.679135 10.7354 85 87 58
-1.38435 -0.449723 11.2586 144 134 93
-0.990155 -0.0128834 10.6618 120 104 67
2.51098 -0.56087 12.966 128 129 99
1.27877 -0.377077 13.0764 154 136 99
1.23947 0.19206 9.07998 112 117 85
1.34403 0.192815 11.3521 90 94 90
-0.260979 0.698078 9.59449 136 96 77
-0.765872 0.94967 10.2657 166 140 116
1.45485 0.626815 11.7848 22 21 11
3.16856 0.639486 11.7155 120 73 58
1.31181 1.14097 9.90267 31 16 12
1.1749 1.22956 8.15316 96 99 68
1.68131 1.12583 9.65003 51 26 14
2.98451 0.903662 11.17 32 6 0
1.1808 1.27487 9.97558 20 8 2
0.582337 1.4161 10.05 43 17 7
2.84497 1.05373 10.0815 46 42 28
2.8861 1.07096 10.8334 116 85 66
1.17572 1.40844 7.96428 93 96 71
3.00028 1.08166 10.7845 50 28 16
3.29149 1.05813 11.0868 74 37 24
1.18311 1.44018 7.91657 88 89 62
2.9055 1.17376 10.075 114 96 78
1.67795 1.42538 9.90693 42 16 5
0.64437 1.67837 9.96327 72 30 14
0.531981 1.71898 10.0674 117 91 80
3.12491 1.26999 9.72454 151 134 122
2.71059 1.47791 9.72675 144 126 118
3.07432 1.54759 13.0307 71 56 39
2.8716 1.49988 9.50562 74 58 42
3.05218 1.62199 13.1321 100 86 69
3.03697 1.57127 11.0139 32 13 8
0.874122 1.8754 7.60809 136 126 106
2.30412 1.80594 10.3572 26 8 4
2.98553 2.01262 12.9256 50 29 16
2.22235 2.05851 10.7471 96 67 64
0.998693 2.09631 7.42103 79 84 55
3.01841 2.07859 12.3214 102 86 79
1.57212 2.28279 10.4007 120 92 85
2.99185 2.14065 12.3784 82 66 60
2.22574 2.58702 11.0575 43 20 19
1.55542 2.78151 10.7576 94 48 37
1.45809 3.22368 11.129 63 18 8
1.08717 2.78188 7.04015 142 130 112
1.48262 3.62802 11.3659 54 20 14
2.44712 3.58794 12.2441 126 100 99
2.2724 3.87276 12.3016 94 68 66
1.25647 4.13631 11.8649 122 75 56
-2.21005 -2.66451 9.60443 98 94 76
3.39275 -0.820341 12.1105 144 156 116
2.10309 -0.448857 10.7179 86 90 74
2.07687 -0.384674 11.1374 161 160 117
2.5961 -0.488885 12.7463 56 52 22
3.72393 -0.0881073 11.1968 114 78 63
3.59341 0.112117 11.1929 134 95 81
1.33717 0.941767 8.34124 23 24 11
3.45767 0.517413 11.079 129 100 84
3.39457 0.599362 11.3613 124 96 82
1.63673 1.02577 10.0878 94 74 62
1.04657 1.201 8.38361 92 94 62
1.27756 1.16278 9.98826 20 6 3
1.67711 1.0956 9.94946 14 4 0
0.63957 1.39062 9.85984 73 56 42
2.8761 1.02535 10.8306 47 25 14
3.22374 0.999629 12.5577 102 88 74
2.99649 1.07797 10.7528 60 36 22
2.42366 1.326 10.0233 104 80 63
3.17116 1.22445 11.0164 91 64 56
0.688709 1.67243 9.90302 80 36 22
0.940057 1.64235 9.86603 132 80 52
3.09449 1.28591 10.5509 70 32 24
3.10417 1.32015 10.8131 92 66 62
1.12973 1.65809 7.75367 88 88 66
1.05721 1.79801 7.90287 120 120 100
2.99906 1.58187 11.1319 32 12 8
2.37106 1.75419 10.3376 112 90 84
0.59477 2.20251 10.3133 24 8 2
3.05853 1.89015 12.0416 38 15 10
2.21411 2.56765 10.8245 51 18 12
0.700772 2.93039 10.9981 111 88 84
2.18741 2.85132 11.1254 119 102 98
1.46158 3.22874 11.0805 60 15 6
2.19939 3.89828 12.2414 124 100 98
-1.87798 -4.55901 12.8237 92 96 46
-2.45927 -2.77814 9.41347 41 46 22
-2.29076 -2.84321 9.54458 132 132 90
-0.378709 -2.81283 11.5257 81 91 56
0.38702 -0.302978 10.3531 56 60 28
2.42847 -0.392844 13.1135 130 122 96
3.13408 0.00543264 11.5456 98 84 62
-0.19875 0.631253 10.048 57 57 39
-0.776625 0.857302 10.5412 84 59 36
-0.632352 0.862159 10.5137 156 143 114
3.38042 0.570316 11.4005 106 78 58
1.63721 1.02907 10.0604 94 74 62
3.01977 0.905433 10.9919 30 10 2
3.21607 0.881199 11.1752 114 74 47
2.78016 1.00545 10.1486 15 11 2
2.9876 1.0115 10.81 141 120 112
2.98852 1.05804 11.0127 77 50 36
2.81528 1.18106 10.2933 98 86 65
3.1316 1.23359 11.0951 82 57 48
3.09871 1.29648 9.79526 122 107 96
3.04045 1.29678 10.6279 77 40 32
3.10593 1.31349 10.848 70 47 43
1.14473 1.65778 7.72488 96 95 74
2.67123 1.47636 9.7387 150 124 121
3.1028 1.62108 11.9442 40 18 14
3.09175 1.68358 12.6752 60 37 26
3.00359 2.10913 12.2793 80 57 50
3.03393 2.07199 12.4145 60 44 38
2.1189 2.87877 11.2739 93 72 68
1.08707 2.73272 7.17834 66 64 30
2.31807 3.84873 12.2684 78 51 48
1.47214 4.07796 11.8821 100 64 58
-1.38673 -0.438776 11.2103 147 138 88
-1.07894 -0.0302539 10.7935 100 81 50
1.3138 -0.495704 12.865 155 152 116
0.752417 0.022816 10.3423 74 76 45
2.51341 -0.477012 12.8415 58 35 16
2.30668 -0.422398 13.4846 132 131 102
0.903042 0.257436 10.9513 27 14 4
-0.687212 0.86705 10.3977 88 61 38
1.24452 0.914416 8.3401 79 86 52
2.96759 0.903804 11.1441 30 12 6
2.88522 0.990838 10.9068 82 56 42
2.89319 1.01958 10.6406 29 12 4
2.98114 1.00295 10.7933 128 107 98
3.06387 1.04285 10.7613 73 48 37
3.24186 1.01383 12.4494 96 80 64
2.90832 1.09538 10.6294 116 85 66
2.97806 1.14704 9.90177 126 106 88
1.52837 1.44376 9.86488 46 14 7
1.55629 1.44148 10.209 40 16 8
2.93027 1.25455 11.3754 158 134 123
3.17399 1.61028 11.6806 34 12 8
3.00989 1.90775 12.9084 114 98 86
3.04072 1.90026 12.004 36 12 8
0.96465 2.12501 7.43848 88 91 66
1.51699 3.12889 11.0204 98 55 42
2.04675 3.63496 11.7381 108 82 80
3.6349 -0.843696 12.1824 148 154 114
0.743441 0.0306592 10.3363 52 58 28
0.931733 0.0713166 10.2949 50 47 24
3.46492 0.551522 11.0716 128 100 83
3.08317 0.991887 10.1611 48 27 17
3.30443 0.992413 12.196 87 72 56
3.22653 1.05433 10.9101 132 97 79
3.26308 1.08216 11.0614 129 98 88
3.08767 1.27086 9.78996 128 112 102
3.12894 1.26372 10.6634 98 70 65
1.0389 1.67849 7.85991 84 84 60
1.20143 2.3379 10.3703 37 6 1
0.928436 2.49458 10.5318 24 5 1
1.56086 2.54255 10.5476 93 60 52
1.06358 2.75298 7.13875 135 124 104
2.59896 3.60348 12.9093 110 82 77
0.676482 -0.194302 9.61374 92 93 58
-0.291223 0.00575653 10.6278 149 141 86
-0.975378 0.417275 10.2234 148 133 78
2.9714 1.14017 9.9338 122 102 84
3.09938 1.24686 9.76218 140 123 113
2.17759 3.88733 12.2276 70 38 36
-0.754132 0.382546 10.3648 135 129 80
3.09843 1.31315 10.7359 100 72 68
3.13864 1.33538 10.669 138 108 102
2.37595 1.4756 10.1005 63 25 9
2.23116 2.53399 10.9144 122 95 88
2.69781 2.74247 11.6666 118 94 93
0.721209 2.86454 6.91443 106 94 79
2.43287 3.59856 12.3197 99 70 68
2.65101 2.79096 11.7829 111 88 86
1.56445 3.21798 11.1129 56 18 12
2.44783 3.58337 12.2397 124 96 94
2.46675 3.59077 12.329 78 49 46
3.22415 -1.36651 6.84292 107 106 62
3.08022 1.27095 10.6676 128 98 90
2.91778 1.59376 11.2877 74 58 54
1.37156 1.05594 10.461 67 46 35
2.86169 1.08417 10.8662 116 85 65
2.19515 2.77481 11.0752 122 104 98
-2.67353 -3.11546 9.38946 105 108 65
-2.33294 -2.6287 9.53638 50 50 28
0.155014 -0.679064 10.7104 80 80 50
2.07644 -0.291971 12.9225 94 72 55
2.94917 0.952098 10.9176 34 12 6
2.89565 0.988793 10.8675 82 55 42
1.66501 1.43501 9.93512 47 18 8
2.61593 2.08726 13.8598 45 24 12
2.24532 2.53278 10.8741 88 54 46
-2.41111 -2.77918 9.37915 38 48 24
1.11881 2.74611 7.05352 107 97 74
2.11032 -0.275958 12.8455 90 68 50
0.931769 0.261453 10.8594 29 25 13
0.583584 1.17182 10.1388 18 12 7
1.53551 1.02356 10.1937 70 50 41
2.94993 1.15653 9.97958 85 67 48
2.40215 3.66924 12.3464 112 90 90
-2.24136 -2.47473 9.66676 76 75 42
1.06354 2.69442 7.25718 72 67 41
1.28919 4.0719 11.9178 105 54 34
-2.32202 -0.688212 11.3571 122 117 72
3.8682 -1.18191 11.9556 80 84 43
3.1676 1.26356 10.6275 145 118 110
2.47701 3.19836 12.1328 87 60 58
-2.73324 -0.5988 11.4668 126 112 58
3.18728 0.641241 11.7738 103 68 50
4.89615 -2.69508 10.129 52 58 26
4.43082 -2.61358 10.4445 106 108 68
3.80465 -1.27327 11.9847 76 78 39
2.97934 1.0668 10.8247 68 42 30
0.6869 2.42958 10.5924 51 17 12
-2.66622 -3.11228 9.40752 93 98 54
2.91341 0.97104 10.9853 37 13 6
3.10897 1.30202 9.77304 144 122 108
1.58582 1.80878 10.0741 68 34 26
1.50372 1.4484 9.95525 52 18 9
3.11928 1.27272 10.7101 124 96 90
-0.184541 2.7327 11.3982 142 120 98
2.42939 1.33365 9.98194 86 54 32
3.66229 -0.85499 12.0999 139 146 104
0.764024 2.44369 10.5423 31 9 3
1.15323 3.73101 11.8574 90 42 32
3.22213 -1.44002 10.5249 62 72 52
2.43371 -0.894011 8.53596 95 98 91
-1.94779 -0.851303 11.4356 106 105 54
-2.42594 -0.715434 11.229 49 40 7
3.43256 -0.899339 12.1238 94 101 60
3.41474 -0.805084 12.0962 127 131 92
-0.0393838 3.38975 12.0018 117 80 64
-2.74691 -0.529025 11.4036 96 71 24
3.16307 1.22481 11.0469 50 24 18
0.71425 2.86461 6.91961 106 94 80
-2.38669 -2.72725 9.39286 41 42 18
0.735607 -0.949899 10.2507 154 155 105
2.67998 2.03565 13.5952 47 24 16
3.22697 1.12191 11.1527 58 28 20
0.130127 -1.93973 8.19396 88 90 44
4.90263 -2.70567 10.1651 36 41 14
-0.178937 3.00721 11.7123 145 128 107
0.717653 2.82758 6.95014 67 64 42
0.687999 2.50311 10.6768 22 7 4
1.09636 2.72854 7.1607 74 71 40
0.271918 -1.88242 8.07695 68 76 28
1.30895 0.207959 11.3053 88 91 87
1.18622 0.280825 11.4702 112 112 112
1.55095 1.02147 10.1573 71 54 42
1.44293 4.05631 11.9174 90 54 49
-0.982426 -3.84158 12.1745 120 122 74
5.00341 -2.81786 10.0437 120 124 80
4.86267 -2.69063 10.1592 44 45 12
2.94911 -1.31573 7.24062 142 141 103
2.60479 -0.982802 8.17082 80 84 78
-1.08107 -0.6261 11.4953 100 100 50
2.13182 -0.561058 9.28771 86 96 84
0.696821 -0.143772 9.63805 150 150 104
1.22993 0.191225 9.08938 112 118 84
3.16335 0.607917 11.1789 58 24 8
3.02207 0.90493 11.0774 46 18 6
0.628025 1.54063 9.91094 108 58 28
2.43385 1.30685 10.0024 103 82 64
0.586514 1.6741 10.0261 59 22 10
0.949927 1.63984 9.85131 89 37 16
0.666299 1.70246 9.83199 150 120 109
3.04072 2.06315 12.3549 54 35 28
3.01095 2.21795 12.2817 30 12 10
3.72322 2.23265 8.94023 133 105 68
1.54939 3.0907 10.9765 120 87 79
1.08253 2.78321 7.05184 102 90 72
2.13396 3.18668 11.377 119 92 88
-0.640568 -3.46168 11.9468 88 96 56
-0.586293 -3.11295 11.6619 90 96 64
-1.28631 -2.118 10.1102 89 90 46
3.01477 -1.324 7.15092 152 151 108
-1.4433 -0.750248 11.5417 116 115 62
0.763908 -0.135397 9.52523 150 150 103
0.762195 -0.087584 9.4617 40 44 13
0.756337 -0.0288602 9.41158 95 97 65
0.8475 1.37605 9.55743 94 70 52
1.56149 1.41037 10.0379 72 43 33
0.541458 1.66899 9.94035 103 56 34
0.998824 1.6278 9.77326 134 83 56
0.886438 1.63761 7.81742 116 108 81
3.08247 1.315 10.9272 48 26 20
3.0688 1.6119 13.0817 118 106 88
-0.235277 2.35702 11.2057 144 123 100
2.97859 2.02331 12.898 54 30 16
3.02983 2.07374 12.2753 106 94 88
2.98289 2.14837 12.4195 114 104 98
0.715712 3.30063 11.3445 134 92 85
2.47619 3.19456 12.1269 78 48 46
0.745254 3.79045 11.8039 116 89 85
5.00623 -2.81746 10.0349 148 152 101
-1.5729 -2.30769 10.0726 99 98 52
-0.831065 -1.76489 10.3361 116 118 72
-0.291519 -1.29594 10.8037 112 114 67
0.758908 -0.0866291 9.45438 36 40 12
0.947841 1.63662 9.84636 129 78 52
-0.0713022 2.9574 11.6094 132 104 86
2.17012 2.58181 10.958 52 18 14
0.703113 2.86326 6.93396 124 112 98
2.58469 3.56621 12.7374 72 36 34
4.95706 -2.81512 10.1145 91 97 54
-1.95212 -2.35699 9.44833 50 54 26
-0.601045 -3.123 11.6769 88 94 62
-1.32503 -2.13008 10.144 97 98 52
-0.901404 -1.78951 10.4352 90 93 50
0.0581078 -0.944459 10.8026 76 80 48
3.8546 -1.16192 11.9257 90 86 50
0.819153 -0.0752449 9.33832 36 40 14
0.720114 -0.0281595 9.46375 93 94 63
1.70307 1.17718 9.74596 52 34 28
2.29003 1.32921 10.1942 48 18 3
0.889414 1.87502 7.59295 136 128 106
2.22674 2.53807 10.9248 122 96 90
2.26332 2.55774 10.9672 42 20 18
1.28016 4.14191 11.8288 96 49 29
0.0921349 -1.96367 8.23504 80 79 32
-1.58624 -2.31096 10.0819 98 97 52
-1.36181 -2.13763 10.1796 75 78 36
-0.672386 -1.60356 10.5418 86 87 48
-0.868445 0.234854 10.404 126 114 68
3.375 0.294322 12.0543 128 103 80
2.53789 3.70247 13.1001 84 56 48
-0.0104972 -1.17312 10.5902 154 152 105
1.33643 -0.36629 9.83297 115 110 70
1.17822 0.130136 9.41389 47 56 29
3.1656 1.10982 11.5601 90 55 44
0.571862 2.41842 10.6487 100 64 55
-0.164984 3.44406 12.1941 133 112 95
2.16005 2.84833 11.1776 106 87 83
2.98391 -0.0680349 12.0852 72 54 27
3.24716 0.82571 10.9699 119 80 52
-0.131367 2.99265 11.6773 144 124 102
-0.133634 3.20733 11.8144 108 72 50
-0.0661695 3.66206 12.1662 130 106 90
0.632568 3.80887 11.9617 82 46 40
1.48608 3.54178 11.3463 90 40 27
1.2888 3.69374 11.5762 46 12 3
2.04878 3.65037 11.7261 94 65 62
-1.24202 -0.187755 11.3052 120 106 64
3.36191 -0.84524 12.1233 148 162 115
0.705409 -0.0894023 9.45961 32 36 14
0.695485 0.120421 9.20689 44 28 9
2.98327 -0.04248 11.9077 74 61 36
1.15114 1.22218 9.85407 10 6 5
2.39775 1.31585 10.066 72 47 30
-1.37061 -2.15105 10.2183 86 88 46
3.01969 -1.32568 7.14549 156 155 119
0.165342 -1.9331 11.1535 86 100 58
0.354937 -1.68348 11.0949 108 114 79
1.31909 -1.71557 11.9273 61 69 36
1.30664 -1.66978 11.9072 148 156 126
-0.29065 -1.2956 10.8 94 98 54
0.673192 -1.12921 10.9232 114 119 80
-2.79958 -0.549433 11.379 86 61 14
1.97866 -0.940112 11.1587 151 155 120
2.49312 -0.879593 10.7031 86 89 76
-1.41637 -0.452692 11.3356 146 137 102
1.95272 -0.417125 10.0145 143 150 122
2.00835 -0.37835 9.84784 116 122 98
0.234191 -0.297679 12.1431 80 76 45
2.93135 -0.385488 11.9443 122 136 96
0.00953229 0.687467 9.28932 118 113 78
2.83313 0.0314866 12.8576 129 112 92
1.23483 0.905336 8.38069 98 108 80
1.39969 1.13648 9.71621 22 6 2
1.64005 1.09267 9.99302 42 27 18
3.43094 0.797057 11.3304 125 101 88
1.67847 1.16756 9.78909 52 34 28
3.33034 0.919165 11.9038 58 30 18
1.60185 1.40574 9.96554 86 60 50
3.13178 1.31952 12.7133 134 123 108
2.51525 1.56415 9.98274 79 50 46
3.09397 1.5625 13.0119 88 76 60
0.571898 2.17568 10.4342 106 70 63
0.261293 2.35285 10.7283 122 78 64
2.93913 1.96934 13.163 126 110 98
1.01536 2.09261 7.40248 94 98 72
3.00808 2.14167 12.1954 47 28 22
0.137424 2.86283 11.1893 126 98 80
0.709673 2.86583 10.9112 130 103 92
2.38979 3.61606 12.2954 56 25 22
-1.91047 -4.5691 12.8812 97 102 53
-1.54953 -2.29711 10.0458 94 96 49
1.84644 -1.85765 10.7366 126 134 92
1.92834 -0.972211 11.2911 142 148 112
2.10012 -0.586131 9.34876 86 93 85
2.0067 -0.424277 9.53326 78 88 77
1.76465 -0.344504 9.43261 70 73 58
1.9883 -0.439466 9.9322 95 104 81
0.107926 0.347883 10.0352 149 147 95
0.148795 0.5283 9.08731 76 79 56
2.9457 0.125878 12.5129 46 22 4
1.5952 1.0891 10.0888 79 62 54
1.59793 1.13346 9.83036 50 25 14
3.29009 1.08945 11.1898 64 30 20
3.33429 1.13931 11.3244 108 78 68
2.38205 1.59834 10.3615 46 17 12
3.10876 1.64107 12.7263 78 56 36
1.4076 2.47294 10.3632 90 47 35
0.0666091 2.89026 11.3234 144 118 98
3.8041 2.18902 9.10625 76 44 24
1.04389 2.79578 7.09647 130 118 102
-2.56942 -0.750908 11.4346 54 47 10
-2.70762 -0.542072 11.2718 86 63 14
0.73042 -0.453252 10.6869 56 57 16
2.91323 -0.447547 12.1053 114 128 84
0.207822 0.613122 9.42424 69 66 48
0.0864435 0.697645 9.17722 114 106 70
1.12119 0.639008 8.82631 92 102 68
1.25323 1.17629 8.07101 106 110 78
2.66922 0.86902 14.6031 96 71 60
1.771 1.1614 9.58154 59 41 33
3.21809 1.13904 11.1672 58 27 18
3.17268 1.16026 12.8201 84 70 54
3.10074 1.30863 10.8901 64 42 38
0.590935 1.92133 10.2753 57 20 12
1.06141 1.79339 7.89789 130 132 111
-0.201018 2.34564 11.1411 148 128 104
2.87141 2.6155 11.2215 81 50 43
3.79051 2.18748 9.13834 61 30 14
-1.16874 -1.97637 10.3487 79 82 46
1.94369 -0.972659 11.25 141 147 110
2.03336 -0.305483 13.1703 122 104 91
0.0495721 0.332572 10.1166 148 147 92
3.05171 0.0686304 12.0162 90 74 54
1.17317 1.22728 8.16663 101 104 78
1.10071 1.46026 8.03564 84 86 59
0.61099 1.69925 9.91359 122 96 86
3.18616 1.25062 10.6228 156 130 124
0.716065 1.90665 10.0432 38 9 2
3.08323 1.66939 12.8182 52 28 11
1.05044 1.87062 7.61119 95 94 70
2.43266 1.72966 10.2687 44 20 16
2.98036 1.9393 12.985 109 94 80
-0.242706 2.5997 11.4043 140 115 92
3.18237 1.98915 11.9205 48 26 16
3.00845 2.24111 12.9929 92 72 48
2.30439 2.23559 10.6265 120 100 98
3.69309 2.07842 9.21915 94 76 38
1.05888 2.77002 7.15484 78 72 42
3.82413 2.57639 9.25503 80 45 26
0.205952 -2.41918 11.4839 95 107 58
-0.55387 -1.47122 10.7616 96 100 58
0.294291 0.508912 9.40648 64 66 46
3.66681 -0.0849374 11.3828 134 100 84
2.88729 1.08344 10.713 120 88 72
3.14746 1.17783 12.8416 86 68 49
1.67598 1.42863 9.74329 81 52 42
0.597667 1.69671 10.0717 75 28 16
0.552999 1.75615 10.1724 40 15 8
3.14921 1.3177 10.5238 84 51 46
0.528436 1.91122 10.2359 96 56 46
3.26536 1.4446 9.57414 78 56 42
1.12935 1.80535 7.76149 86 85 62
0.959863 1.88786 7.74715 87 87 63
2.34133 1.74437 10.3499 70 36 32
0.0616832 2.27361 10.6561 147 128 103
2.93008 1.95994 13.14 94 72 58
-0.251673 2.74243 11.49 126 102 82
3.07965 2.16005 11.8305 40 23 17
2.22485 2.28844 10.8121 77 54 52
-0.0298269 2.91772 11.4682 148 125 105
2.98118 2.4492 12.7034 92 70 56
0.687235 2.93125 10.9965 98 70 65
0.233601 3.26837 11.422 138 112 91
2.13259 2.92144 11.4527 40 14 11
-1.26851 -2.10266 10.0392 90 95 54
0.184858 -2.4321 11.5182 95 107 58
-0.486818 -1.43711 10.6374 72 78 41
2.5977 -1.19945 8.72826 110 119 82
0.0776968 -1.07737 10.5393 96 101 62
-0.374509 0.835114 10.087 148 138 91
1.08059 1.20978 8.32009 84 88 61
3.21411 0.811582 11.0375 113 70 46
1.4535 1.26261 9.81763 26 14 10
3.18495 1.46899 9.81557 62 46 28
3.00314 1.54718 10.9381 84 59 54
2.94498 2.4647 12.7919 75 44 28
2.17833 2.60267 11.2694 42 24 20
0.0257822 3.12881 11.4802 130 105 82
2.10983 3.21452 11.3707 76 39 34
-1.04017 -2.01155 9.73448 99 102 60
-0.372257 -1.40736 10.4425 91 98 55
0.0147786 -1.09547 10.6238 82 88 51
-0.853384 0.273001 10.4149 150 142 87
3.34547 0.678941 10.9523 152 107 90
2.97192 0.796931 11.4556 110 69 47
1.59534 1.15209 10.0173 46 32 26
0.958305 1.97851 7.8983 154 144 121
2.96073 1.95215 13.0741 114 98 86
2.54392 3.13542 11.9046 101 67 67
2.06468 -1.0011 10.9345 112 118 80
2.33446 -0.635171 13.8882 140 156 114
0.0390169 0.207796 10.1303 148 143 89
3.15789 0.11272 11.4638 80 60 46
1.6503 1.1649 9.90951 16 4 1
2.93906 1.06516 10.8904 74 49 35
1.08489 1.42006 8.04009 66 72 42
1.0742 1.83089 7.79361 61 61 35
3.16921 1.85163 11.4712 46 24 20
1.99183 3.64248 11.9006 112 83 80
0.628269 4.03912 11.9266 102 72 64
4.74968 -2.67193 10.2067 158 160 109
0.624938 -1.16898 11.0123 112 118 81
2.92032 -1.23194 10.4402 68 75 58
3.37517 -0.783353 12.0619 114 121 82
3.64499 -0.715017 11.89 94 73 40
2.76778 0.0302483 12.6683 78 62 42
3.12269 1.28938 9.85174 94 64 50
4.07299 -2.13375 10.1695 83 88 64
3.58882 -0.738654 12.0174 46 40 12
1.53743 1.03343 10.2796 99 79 68
0.635198 1.91324 10.1739 40 10 2
1.91955 -5.11275 12.7373 86 89 36
4.82529 -2.6892 10.1339 159 161 112
4.78435 -2.67067 10.1369 148 150 100
4.10586 -2.09615 10.0172 82 85 62
3.86355 -2.03373 10.1625 73 80 52
-2.12199 -0.879579 11.3697 124 122 68
3.41042 -0.817591 12.0863 151 160 119
2.25839 -0.274138 13.3036 136 126 94
3.55917 0.00243102 11.7333 131 92 76
-0.787787 -3.60687 12.0965 142 148 100
-2.02427 -2.61739 9.89423 96 94 50
4.9977 -2.84889 10.102 148 152 100
4.95109 -2.64495 10.0312 46 56 32
4.68696 -2.68291 10.2824 98 100 54
-0.402965 -2.83822 11.6043 96 103 70
3.83979 -2.07983 10.3285 76 83 55
3.0279 -0.0749401 12.6202 118 98 72
2.50146 0.87201 10.5454 51 49 36
1.16334 1.20471 10.0569 32 13 8
2.8676 1.50222 9.52522 76 64 46
2.06966 3.60805 11.7066 122 98 93
2.17411 -0.504417 13.5192 142 157 114
2.45973 -0.488384 13.0287 58 34 18
1.11237 0.335983 11.1728 125 121 110
-0.688144 1.30107 10.4409 98 53 30
0.491954 2.22258 10.4603 24 8 3
3.44458 -0.822214 12.1534 36 36 9
-1.05862 -0.0894516 10.8702 94 76 48
4.89251 -2.76044 10.2994 40 46 18
2.11001 -0.289963 12.6485 88 72 52
2.17664 -0.300029 13.4523 74 56 32
-7.53776 1.20405 15.5948 144 136 102
3.41867 -1.71677 10.3748 68 76 52
2.85011 -1.21929 10.5434 82 88 66
1.97418 -0.439832 9.63816 74 84 70
3.42141 -0.910472 12.1471 102 108 66
1.16077 -0.427277 13.7591 160 132 92
1.86731 -0.271348 13.3908 80 56 36
0.775423 0.327074 9.04907 109 108 58
1.62002 1.09048 10.027 31 18 12
2.66473 0.951019 10.3439 66 64 56
3.06731 0.905609 11.0912 94 48 21
3.1487 1.05936 12.7761 70 58 44
3.17719 1.17279 12.7985 102 92 78
3.14793 1.29954 10.7486 74 54 50
3.06016 1.51225 13.0631 112 102 85
2.96204 1.55717 11.1082 126 103 102
2.94408 1.81124 11.1427 120 100 97
2.93915 2.03771 13.087 51 28 16
3.0094 2.07393 12.3303 112 96 89
2.84027 2.06174 11.3494 120 98 93
2.8947 2.27189 11.7265 106 76 73
2.95443 2.52723 12.4985 105 84 80
2.1951 2.86247 11.1164 114 96 92
2.80638 2.99861 12.8329 98 74 70
2.59667 3.55212 12.5672 112 88 84
2.61561 3.55928 12.6474 70 40 34
2.45897 3.56558 12.2276 124 99 100
2.07064 3.59038 11.6889 122 99 96
2.35725 3.83808 12.4903 68 50 46
1.4037 4.05331 11.6289 102 52 35
-0.808492 -3.65672 12.043 98 104 66
3.02702 -1.38685 10.5086 76 81 60
1.2126 -1.36318 12.0366 134 141 96
-2.77945 -0.538832 11.4346 94 70 28
3.4332 -0.910106 12.0929 140 151 106
-1.30885 -0.233409 11.4307 93 79 42
3.35938 -0.817372 12.2398 134 139 105
3.59866 -0.827536 12.1853 124 126 90
3.07004 -0.596101 12.2082 132 143 106
2.39541 -0.541788 13.0556 131 130 98
1.64658 -0.336636 13.4957 52 22 6
1.24303 1.2653 9.89724 27 8 2
2.85555 0.975534 10.8753 74 47 34
0.866315 1.42631 8.04701 151 143 118
2.98971 1.07585 10.8178 60 38 25
3.30139 1.05009 11.0619 69 32 16
3.17986 1.07295 12.7169 68 54 42
3.00386 1.34314 9.99525 138 119 104
3.05722 1.55792 13.0975 58 47 31
3.07033 1.60629 13.0841 93 82 68
0.895236 1.87546 7.59062 132 124 102
2.98687 1.80386 11.0908 76 55 50
2.8231 1.8771 11.2698 34 11 10
2.97231 2.15644 12.4218 76 62 57
2.41636 3.58642 12.2952 110 81 80
2.38513 3.81112 12.4235 79 61 58
2.21356 3.91059 12.5714 64 36 32
-1.81868 -2.15358 9.74666 60 60 36
-2.42512 -0.711301 11.2495 58 47 9
-0.978171 -0.0052957 10.5721 82 56 34
1.93458 -0.350236 13.4313 92 74 58
-0.950867 0.43187 10.3006 144 104 74
3.29648 0.614558 11.2951 139 100 88
2.55907 0.980608 10.5328 54 54 42
3.44496 0.825511 11.288 122 98 85
2.87736 0.968366 10.8405 70 46 32
3.40628 0.995193 11.4125 93 72 66
1.61685 1.43928 9.91434 104 75 61
2.94865 1.3015 11.0721 116 86 80
1.54198 1.66157 9.73313 158 112 90
1.55009 2.02703 10.2592 100 70 66
2.91665 1.81149 11.1976 100 75 72
3.05887 1.83001 12.2298 102 76 66
2.91771 1.82735 11.3087 35 15 9
3.0097 1.91933 12.9139 114 96 84
0.670792 2.89249 10.9943 116 78 67
0.676266 2.9528 11.0359 106 78 68
2.74116 3.03014 13.0073 95 70 64
1.12286 2.73758 7.08865 86 76 50
2.6771 3.46419 13.0709 94 65 58
1.50981 3.60594 11.4199 116 87 82
2.62708 3.53998 12.5937 84 52 47
2.04816 3.61023 11.7429 113 86 82
3.028 -1.39012 10.5075 72 76 54
-1.34392 -0.436921 11.1881 150 142 96
3.65717 -0.829727 12.1163 146 154 114
-1.03817 0.37684 10.2998 150 124 76
0.749028 0.347608 9.04245 144 141 86
0.515879 1.16624 10.1922 22 10 4
1.14379 1.2789 10.0152 24 6 2
0.899453 1.37271 8.03521 120 114 86
2.94402 0.973823 10.9284 35 12 4
1.7396 1.23653 9.69632 18 6 0
1.18142 1.40648 7.95572 96 99 74
1.16885 1.452 7.93686 94 96 68
3.30996 1.07397 11.0288 60 28 15
0.243211 1.66941 10.12 110 76 54
1.76176 1.4148 9.73271 74 48 36
0.266103 1.73708 10.3584 107 60 36
3.22232 1.18823 11.1767 100 71 64
3.14661 1.22709 11.081 34 14 6
2.54457 1.38642 9.8111 136 97 80
2.96063 1.56839 11.0958 113 92 92
1.09874 1.8635 7.54409 100 102 81
2.3515 1.75409 10.3805 108 84 76
3.08665 1.87155 12.0324 33 15 10
0.694405 2.39497 10.4884 108 72 61
2.91112 2.55127 12.5677 80 57 53
1.19339 2.7245 6.98989 104 92 70
2.65409 3.48138 13.1007 94 68 60
1.47621 3.98949 11.7249 117 80 68
2.00027 4.01499 12.2101 72 35 30
-2.60887 -0.719674 11.431 62 50 14
3.17351 1.00609 12.682 104 89 76
1.1544 1.44802 7.9446 82 83 54
3.32873 1.0719 10.9637 78 47 36
1.12749 1.49558 10.0252 155 110 80
3.20509 1.19076 11.251 104 72 65
3.11979 1.32033 10.6458 105 73 66
2.93108 1.57388 11.1351 64 36 33
3.08634 1.66536 12.7535 54 33 20
2.3836 1.74891 10.3131 101 76 68
0.667623 2.15715 10.1906 42 11 2
1.55121 2.04099 10.2601 89 61 56
2.99967 2.01341 12.8247 43 18 10
0.74858 2.42436 10.5359 41 14 6
3.03534 2.09854 12.2358 62 48 42
2.90467 2.55294 12.5656 60 36 33
2.82043 2.73192 13.394 77 50 34
0.700332 3.34836 11.386 102 58 50
1.46091 3.99373 11.7144 110 68 55
-2.16891 -2.45148 9.61308 56 56 28
1.95314 -0.362824 13.4051 94 74 58
3.35905 0.550935 12.1868 84 62 44
1.68208 1.22581 9.75423 44 25 18
1.21338 1.47082 9.7499 172 125 96
1.03397 1.88298 7.60573 104 104 83
0.737604 2.8248 6.92107 106 99 78
1.24104 2.70778 6.94162 99 88 64
1.48286 4.07163 11.8728 78 35 26
-0.969029 -0.00303358 10.6158 96 76 44
1.48609 -0.397193 12.1118 92 90 63
1.03687 0.251841 10.6976 30 28 14
1.62675 1.23488 9.84872 30 14 7
2.89231 0.982879 10.8627 83 56 42
3.04282 1.68806 12.7731 52 29 20
0.686752 2.49217 10.6654 32 13 10
1.23336 2.62971 7.13024 62 60 31
3.74868 -1.25984 12.0681 86 84 44
-1.66187 -0.459755 11.4776 148 141 86
-1.08173 -0.0121976 10.755 89 66 38
0.461348 1.26844 9.92886 35 28 15
2.99808 1.64922 12.1647 46 26 20
2.85807 2.05021 13.123 44 20 11
2.40341 3.64793 12.2968 78 51 50
-2.64611 -3.10317 9.38522 78 82 38
-0.583938 -3.1056 11.6789 92 96 63
-1.75358 -2.29056 9.74322 79 82 55
-4.43259 1.00659 15.3223 114 99 72
3.32047 1.11356 11.1144 99 62 52
2.92593 1.65203 11.0918 28 7 4
2.90358 2.57962 12.5954 105 84 78
0.703479 3.83912 11.8877 88 50 43
2.40979 3.59126 12.2469 61 28 26
2.23792 3.90774 12.3584 72 47 44
2.0524 3.99281 11.7846 70 32 20
2.829 -1.22933 10.5836 74 79 59
0.858863 -0.361988 9.98795 57 60 25
-1.04126 -0.0325287 10.7539 108 92 54
1.1679 -0.428328 13.7195 167 143 101
-1.47266 0.446072 10.8046 139 116 74
-3.35657 1.08501 14.1758 134 118 94
3.45664 0.459046 11.1679 106 76 58
1.63213 1.0821 10.0134 50 37 27
3.31181 1.14098 11.3872 113 82 72
3.14356 1.21813 11.1166 50 26 16
2.896 1.65582 11.1434 23 4 0
3.0328 1.83595 12.2781 97 73 62
3.0416 1.88282 12.1416 35 18 10
3.05898 1.96526 12.7371 50 30 20
1.60515 2.27102 10.348 116 88 82
2.47748 3.58575 12.298 76 46 46
1.22262 4.16659 11.9246 102 53 36
-0.853071 -3.66828 12.107 88 92 58
0.515889 1.1588 10.1573 27 14 4
0.878451 1.41835 8.02286 160 149 126
3.17837 1.19008 11.2604 98 68 60
2.57344 1.38086 9.82163 132 96 78
2.98246 1.55069 11.0636 107 82 79
3.0087 2.08287 12.3283 95 80 75
1.03095 2.81043 7.06947 138 125 110
2.55502 3.65199 12.6146 74 52 52
1.81101 4.10926 11.8631 132 92 78
-1.83483 -2.22216 9.75722 81 78 52
1.31563 -1.98881 11.9919 124 128 87
-2.41326 -0.702176 11.2304 54 43 6
0.788839 3.77434 11.7115 118 82 74
-2.63116 -3.10303 9.36884 118 120 74
3.16507 0.764177 12.7572 128 117 105
2.79203 1.03814 10.9083 28 12 6
1.69286 1.41572 9.93574 45 20 14
1.12842 1.86143 7.50091 98 97 77
2.68259 3.46079 13.0246 85 56 50
3.74863 -1.27648 12.1064 78 75 36
0.522136 0.726234 8.89483 159 146 120
3.33484 0.290696 12.2281 118 94 66
3.17333 0.808706 11.1583 114 73 50
3.21764 1.10291 11.1784 62 32 23
2.7556 2.76556 13.5329 79 49 33
1.16241 2.72472 7.03373 96 86 63
3.36997 0.568018 11.415 132 106 92
3.06459 0.985256 10.596 102 84 72
0.6761 2.84581 6.97546 132 124 105
2.39665 3.67635 12.3053 88 60 60
1.97709 4.0335 11.8755 88 51 40
3.64004 -0.863995 12.2068 140 156 114
0.831293 0.225493 10.9689 30 28 12
-1.97071 -2.54322 9.72054 87 88 66
-1.56036 -2.29836 10.0695 92 96 48
-1.35017 -2.13827 10.1975 98 96 50
3.60428 -1.88911 10.3503 81 84 60
2.53975 -0.947239 8.311 88 90 84
2.46973 -0.893221 8.70749 82 90 82
0.0207612 -0.801165 10.5873 73 77 48
3.81632 -1.26335 11.9331 70 69 30
2.08062 -0.575519 9.1857 84 90 76
3.85027 -1.19724 12.0194 91 98 57
3.54246 -1.06313 12.0827 132 142 93
0.724403 -0.296083 9.9187 99 102 64
3.32027 -0.800272 12.2533 94 100 58
0.980381 -0.0320413 9.99111 118 120 86
0.167302 0.531849 9.07285 79 74 53
-0.0552875 1.71 10.5158 66 32 12
3.10895 1.31194 12.7867 132 118 108
2.98857 1.59983 11.1346 27 8 4
1.54179 4.12914 11.798 152 116 104
4.87659 -2.70549 10.169 52 52 22
-1.10163 -0.626265 11.5214 122 120 68
-1.13372 -0.222123 10.9625 50 29 9
0.631889 -0.221957 9.80227 60 59 22
3.3183 0.632891 11.2117 112 70 54
0.873051 1.38005 8.06178 108 102 72
-0.179632 1.7583 10.6547 130 103 84
3.34785 1.18429 11.3789 114 86 75
3.10665 1.5994 12.0042 30 12 7
2.28618 1.81309 10.423 28 7 2
2.98257 1.80064 10.9877 72 48 44
2.8526 2.28745 11.8082 102 73 70
1.53849 2.57828 10.5526 56 20 8
1.75468 2.98367 10.9212 106 56 45
2.84423 2.97904 12.751 88 62 58
0.746609 3.79363 11.7879 122 90 84
-0.526731 -1.20324 10.4701 67 70 45
-0.19618 -1.15475 10.6729 86 86 56
-0.144497 -0.936722 10.4973 76 77 50
3.85847 -1.16516 11.9707 88 88 50
0.787664 -0.231439 9.63369 112 110 70
3.22757 0.758552 11.138 112 68 44
0.795572 1.38444 9.72318 66 50 40
2.77956 1.02421 11.0617 50 28 17
1.59043 1.59046 9.86831 74 34 16
2.83289 1.88103 11.2462 31 7 6
-1.59007 -2.29463 9.87981 45 50 12
3.86066 -1.15772 11.9358 88 85 48
3.32342 0.636563 11.1886 132 88 74
1.62321 0.982132 10.0688 59 48 38
0.865402 1.64255 7.83317 133 124 102
2.42386 1.77857 10.3777 21 8 4
3.06303 1.75916 12.6956 49 26 15
2.21991 2.55165 10.9394 124 98 92
-1.64644 -2.30642 9.92507 46 50 19
-1.78266 -2.12147 9.74453 49 50 28
-1.3202 -2.11092 10.1167 52 58 24
-0.481393 -1.56393 10.2509 111 112 69
0.108936 -0.684096 10.7651 88 86 60
3.30353 0.0405534 11.2843 67 47 26
0.233389 1.76538 10.5099 96 61 46
3.00408 1.33472 11.1092 28 10 8
2.45151 1.76184 10.3431 20 10 5
2.32566 2.04401 10.65 27 11 8
2.23632 2.30387 10.6416 44 16 13
2.20023 2.82495 11.0779 104 82 80
1.36339 3.67043 11.492 46 13 4
4.84663 -2.7599 10.3082 54 55 24
0.598527 -0.262347 9.89459 146 144 101
3.4235 -0.795105 11.9828 147 158 110
2.00143 -0.183008 12.991 32 14 6
1.15726 1.25427 9.91925 17 9 6
2.23174 1.82041 10.4189 26 7 2
-0.188252 2.53287 11.2139 136 110 88
0.666204 2.90374 10.9882 80 48 40
0.735301 4.04665 11.8113 101 72 64
-0.314468 -0.413876 10.938 134 132 86
3.37175 0.0576571 11.1019 56 35 17
1.14707 0.607301 11.2419 74 73 61
-0.127344 2.51919 11.1362 136 110 88
1.19884 2.35925 10.4471 29 6 2
1.34322 3.6697 11.4567 46 11 4
0.260039 -1.9016 8.08886 73 74 26
-1.28329 -0.225211 11.3693 104 88 52
1.34932 0.596124 10.9863 80 80 70
2.87339 0.965408 10.8814 76 48 35
1.02091 1.62444 9.72992 134 84 56
-0.0415882 3.44214 11.9625 140 116 96
0.665324 2.80912 6.99683 110 103 86
-0.49047 -3.24035 11.9471 110 116 70
-0.299013 -2.77142 11.4224 96 106 71
3.09336 -1.30878 7.02993 108 104 66
2.89325 -1.28771 7.32218 142 139 100
2.79331 -1.26594 7.45547 138 136 100
2.74874 -1.20616 7.49623 143 142 109
1.29315 -1.72509 11.9568 98 103 60
-1.95342 -0.85118 11.4374 101 100 47
2.32776 -0.754156 9.03167 84 94 78
0.302817 -0.678424 10.7398 70 74 42
1.74798 -0.350849 9.49565 79 86 69
-1.06237 -0.208521 10.8901 42 24 8
-1.23384 -0.225067 11.3311 114 100 58
2.66848 -0.532491 12.5361 97 102 69
3.72496 -0.0837489 11.2083 98 66 51
3.31852 0.599304 11.5853 60 32 14
3.30059 0.628517 11.2578 112 69 54
1.5923 1.0254 9.9793 44 28 20
3.3329 0.982997 11.6277 120 99 90
2.8588 1.18604 10.1594 124 110 96
3.35036 1.1466 11.2862 86 56 46
0.72949 1.66661 9.82838 66 32 18
0.588124 1.93697 10.1923 113 79 72
2.39453 1.80086 10.2205 31 7 4
2.82799 1.88256 11.2959 26 6 4
3.02777 1.94129 12.8434 97 82 71
1.6335 2.25144 10.2873 112 84 77
2.95979 2.39279 12.9423 100 76 58
2.90849 2.3308 11.9638 84 52 47
1.53446 2.58959 10.5775 52 17 8
0.153592 3.34425 11.7099 128 96 78
2.22882 3.14683 11.1958 122 94 92
-2.02522 -4.65693 13.0612 90 94 48
4.91597 -2.68857 10.2283 44 52 24
-0.394851 -2.38923 11.3861 100 103 56
2.7282 -1.21741 7.52285 136 137 100
2.52775 -0.953834 8.3162 88 90 84
-1.97085 -0.855716 11.4643 116 116 61
0.169289 -0.912612 10.6693 88 89 56
0.742958 -0.898058 10.3744 154 151 107
2.09865 -0.573497 9.14209 75 80 68
3.31939 0.816206 11.6643 110 86 72
-0.183319 2.08799 10.8901 156 136 114
2.7624 2.38221 11.6214 43 24 12
0.712296 2.86334 10.9127 103 66 54
0.734694 2.89636 11.0074 54 20 12
0.685853 2.94213 11.0369 120 96 89
2.91204 2.57478 12.57 90 70 68
2.93822 -1.29244 7.23725 115 114 67
2.94267 -1.2601 7.24696 153 150 111
2.68606 -1.30102 7.55535 142 148 100
2.74951 -1.21295 7.48471 130 132 95
1.34555 -1.52742 11.8381 120 126 78
1.24811 -1.3547 11.9816 120 127 84
0.745721 -0.90547 10.3412 155 152 106
0.748102 -0.480833 10.6743 54 58 18
2.99068 0.035155 12.011 58 40 22
1.66775 1.19232 9.772 62 38 31
1.12126 1.68449 7.74072 98 96 74
2.42923 1.582 10.2916 34 8 2
-0.0111741 2.33375 10.8894 142 117 94
2.79874 1.8964 11.1747 38 18 14
-0.187324 2.64394 11.3658 148 124 101
2.77759 2.36959 11.5835 42 22 12
2.27322 2.53467 10.8428 126 103 97
1.57378 3.22398 11.1197 52 13 3
-0.88396 -3.67867 12.1464 78 86 52
-0.401238 -2.83527 11.5831 92 102 67
3.03869 -1.28702 7.1041 153 152 106
2.85813 -1.27229 7.3515 153 154 106
2.74465 -1.28601 7.48584 152 154 104
-0.823134 -1.76418 10.3171 108 108 64
2.7801 -1.2025 7.43554 135 137 100
-0.720324 -1.61642 10.5969 90 90 50
0.997885 -0.423869 10.252 48 56 16
1.52635 0.221641 10.9927 92 96 94
3.33087 1.18489 11.3723 116 87 76
3.14017 1.30593 12.7233 131 121 108
3.04426 1.39634 12.825 60 37 23
-0.1219 2.62259 11.2505 150 130 108
0.889123 2.45137 10.3679 22 4 2
2.91431 2.24839 13.3038 96 67 45
2.26545 2.73008 11.0222 55 27 23
2.92962 2.91374 12.4571 76 48 42
1.14674 2.71926 7.09962 85 79 48
1.11109 2.76739 7.03783 115 102 84
2.95183 -1.28319 7.19864 134 135 86
-0.00499785 -0.957405 10.8907 85 86 54
1.96037 -0.341379 13.3907 122 108 92
0.469674 0.726418 8.96253 154 142 104
1.55695 1.0282 10.1893 90 73 62
0.599672 1.91619 10.1531 118 82 74
2.99014 1.74079 12.902 60 36 26
3.00395 2.12366 12.4977 33 17 12
0.957686 2.482 10.5108 29 6 1
3.00345 2.21927 13.0233 97 66 43
2.27349 2.26981 10.6727 68 40 39
0.0999824 3.36128 11.7696 142 115 97
2.02697 3.29655 11.6337 106 85 82
2.43826 3.72749 12.8049 80 55 54
3.71632 -0.0827006 11.1762 144 109 94
3.38277 0.847859 11.3932 133 108 100
3.18344 1.14132 11.5327 123 88 74
3.02387 1.41224 12.9213 51 28 14
2.99574 1.54905 10.9952 89 64 61
2.38084 1.73118 10.2897 82 49 44
2.87564 1.66655 11.092 24 5 2
2.92531 1.80301 11.125 76 49 47
3.14679 1.99716 12.2298 34 16 10
2.31515 2.76243 10.8232 104 83 80
1.97799 3.29902 11.6955 82 50 48
1.29767 1.17751 9.81901 47 30 24
3.33805 0.823349 11.5655 146 122 110
0.569955 1.55553 9.60522 74 34 18
2.95527 1.62819 10.8538 50 24 21
0.617823 2.18479 10.2279 42 16 10
0.35061 3.27959 11.3393 141 119 100
2.20039 3.17571 11.1943 72 36 33
1.4152 4.15569 11.749 107 62 47
-2.53994 -0.74938 11.376 103 96 50
1.1319 0.309626 11.1161 118 114 106
1.29376 1.20597 9.8528 74 48 40
1.84033 1.57905 7.88333 111 88 66
3.075 2.34284 12.5723 86 56 38
-0.993772 -3.84782 12.1807 112 114 74
5.12641 -2.83173 9.99677 76 85 52
4.82282 -2.67151 10.1095 152 154 113
4.13485 -2.46417 10.4582 98 102 61
3.02771 -1.30499 7.11821 154 154 116
4.08003 -2.12579 10.1687 84 88 61
2.58222 -1.02412 8.0235 91 90 83
3.15551 -1.3557 10.5033 74 79 62
2.70241 -1.05896 10.5875 74 80 58
3.57595 -0.848702 12.3397 146 144 107
1.53134 0.0213052 8.2888 84 86 51
3.07766 -0.567656 12.0545 116 128 86
1.04703 -0.474937 13.6021 98 74 36
1.048 -0.437207 13.4965 170 158 126
2.4312 -0.537872 12.9547 138 138 104
2.54318 -0.492072 12.9586 56 59 26
0.846997 1.68736 7.85472 140 134 104
1.07136 1.69348 7.81277 106 106 83
3.26609 1.35453 11.4814 34 14 8
3.09308 1.61139 12.9745 114 100 84
1.15896 1.84919 7.47797 105 105 84
2.29521 2.07064 10.6844 32 12 8
2.59704 3.66413 12.9313 72 44 35
-0.384771 -3.19597 11.7834 107 112 72
4.67813 -2.69014 10.3318 111 114 73
4.17075 -2.47906 10.4636 130 136 94
3.42175 -1.71792 10.3555 68 75 50
1.53648 0.042719 8.23953 72 74 40
1.49128 0.078981 8.24903 150 148 104
1.01407 -0.440646 13.5893 166 156 122
2.53691 -0.501679 12.974 56 56 24
3.03558 -0.173178 12.2026 122 122 92
3.06666 -0.0449588 11.7577 102 96 66
0.337488 1.35175 9.98866 76 62 40
0.357323 1.41191 9.83911 110 80 50
1.19542 1.45877 7.88252 84 85 57
3.21342 1.21235 11.3871 71 41 32
3.10624 1.32078 12.7791 126 114 99
1.08908 1.8617 7.56438 101 101 79
2.25692 2.08175 10.5763 38 12 7
4.73723 -2.67135 10.2234 147 151 106
4.0514 -2.18038 10.3045 74 77 52
3.23953 -1.556 10.4041 58 64 38
1.45158 -0.346246 12.8556 158 130 88
2.34838 -0.425862 13.3735 136 130 102
-0.460054 0.880375 10.2969 151 139 96
3.14681 1.23083 11.1428 50 23 16
1.29164 1.72043 7.59681 72 76 56
-0.669362 2.63452 12.5562 36 8 0
0.696459 2.52592 10.6695 20 4 2
0.719171 3.34172 11.377 110 80 74
1.75257 -1.09574 11.797 152 156 121
2.5421 -0.867158 10.5878 78 84 69
1.00712 -0.498985 13.6129 101 78 48
2.18854 -0.307457 13.3893 80 63 40
2.94467 -0.209718 12.5526 126 128 96
0.882074 1.88718 7.58869 134 126 103
2.61645 3.56592 12.9139 114 84 78
4.16682 -1.52518 8.68406 56 60 33
-0.960216 0.00314922 10.6153 123 107 66
1.11086 -0.516687 13.1984 145 142 113
0.926115 1.86674 9.96242 97 50 38
0.641982 2.90898 11.0357 97 66 56
1.04535 2.77081 7.1485 94 86 58
0.975099 -0.437091 13.7515 164 156 118
2.32033 -0.42823 13.4421 119 112 86
3.00981 -0.379412 12.8104 109 109 78
1.23817 1.18344 9.93306 67 44 38
1.45411 1.13539 10.3419 31 22 16
1.27762 1.22963 10.1007 14 8 4
0.892129 1.87534 10.0357 112 66 52
-1.79987 -4.50371 12.7517 102 106 58
-2.10185 -2.64676 9.59367 44 44 21
1.10154 -0.421619 13.5687 162 152 104
3.29408 1.04133 10.7673 150 115 99
3.30756 1.07747 10.9522 91 62 50
2.48591 1.5507 9.85288 152 116 105
3.25169 1.09292 11.4526 134 98 88
4.97211 -2.79643 10.0388 85 88 46
-2.75281 -0.539615 11.3079 83 66 20
2.50484 0.873714 10.5272 56 56 41
1.74503 2.98419 10.9315 104 56 46
2.79937 3.27203 13.0895 71 40 28
-3.20367 -3.46293 9.33615 98 92 46
-0.213725 -0.953389 10.5886 78 81 56
1.19908 -1.37234 12.0668 92 96 56
-2.18882 -0.872049 11.4255 114 111 57
-2.01678 -0.859173 11.4909 122 118 64
2.70032 -1.0585 10.5812 78 84 64
1.94609 -0.720123 10.1472 99 104 68
2.53231 -0.860591 10.5948 82 85 70
3.55312 -1.05937 12.0591 118 124 78
2.30588 -0.65409 10.6759 76 80 63
-1.35729 -0.235257 11.4817 115 104 64
1.4296 -0.450527 11.2373 148 149 105
-1.1085 -0.0832552 10.9526 106 96 43
-1.05544 -0.0400028 10.7769 134 121 74
3.44788 -0.824359 12.4733 136 128 95
3.67305 -0.714631 11.8226 76 64 34
1.47589 -0.284996 10.9004 140 146 108
1.56681 -0.399151 11.9507 154 154 120
3.51075 -0.691404 12.5466 104 80 58
2.52758 -0.601879 12.928 58 57 18
1.22777 -0.347184 12.4643 78 69 55
2.28657 -0.601992 13.2888 88 88 53
-0.910471 0.20464 10.4631 132 118 67
0.659002 0.148853 9.34149 113 110 60
1.02875 -0.394703 13.3535 109 90 76
0.964019 -0.412158 13.5687 60 42 23
2.5141 -0.553992 13.0853 138 142 103
2.23757 -0.485792 13.2476 138 136 100
-0.209519 0.180405 11.1623 134 125 82
2.28663 -0.343382 12.8538 106 88 68
-0.325137 0.363273 11.0824 134 128 78
-2.61639 0.818499 9.90635 136 133 92
-1.04088 -0.538647 20.8454 154 136 105
0.667194 0.487164 9.8538 63 64 49
-0.746293 0.742976 10.2476 123 93 71
-0.49749 0.720004 11.0323 145 129 113
0.192954 0.681004 10.2919 78 66 46
3.59515 0.132681 11.1161 116 81 69
-0.607624 0.828144 11.1686 130 113 92
-0.644952 0.875573 11.1628 128 109 90
3.43191 0.237112 11.5319 72 44 26
-1.01745 0.98935 11.5089 141 122 106
3.64809 0.275686 11.0124 106 82 70
-0.477709 1.02545 10.8176 150 135 114
3.32155 0.303306 12.2917 92 67 43
3.57614 0.441487 10.9721 42 20 7
0.854069 1.10627 8.31753 117 111 86
3.1455 0.547651 12.6808 68 48 34
3.41766 0.639545 11.3142 72 48 31
1.27816 1.21501 8.05289 106 108 80
1.40079 1.19528 8.08793 99 108 84
-0.557566 1.52269 11.2749 100 82 66
3.34749 0.837009 11.5155 74 50 38
0.300789 1.52249 9.86891 112 67 43
3.34793 0.956209 11.6542 116 100 94
-0.399988 1.75755 10.6738 161 134 116
3.48558 0.964583 11.3607 111 96 92
3.20203 1.02279 12.598 112 94 84
3.26711 1.09677 11.2254 140 104 90
3.25098 1.09683 11.7349 62 42 36
2.98855 1.21076 9.92656 114 94 74
2.46659 1.32054 9.95777 88 68 43
3.19814 1.17807 11.6191 90 60 52
3.12311 1.29716 10.8432 54 34 28
3.15737 1.29962 12.6746 118 102 90
3.1232 1.32365 9.76371 135 110 96
3.15832 1.34312 12.5992 33 13 6
2.65337 1.50497 9.81206 126 96 76
2.9615 1.54355 13.3128 140 134 120
2.99402 1.54383 11.0516 120 102 98
3.08242 1.59742 13.0771 132 126 112
3.06645 1.60851 12.895 112 92 79
2.38884 1.73898 10.312 92 72 56
0.840254 2.14054 10.2468 112 69 58
2.91985 1.83783 11.276 31 9 6
2.91017 1.99403 13.2221 84 68 54
2.78018 2.15275 11.3694 34 8 4
1.48935 2.56848 10.6828 120 88 78
1.58367 2.56246 10.5689 116 88 80
2.7835 2.36056 11.4819 98 71 66
0.696036 2.8759 10.944 121 88 77
0.79739 2.92264 10.8847 110 76 68
2.88894 2.59248 12.6556 112 89 83
2.70055 2.718 11.702 112 85 82
2.66371 2.94853 13.6388 104 86 73
0.816265 3.28184 11.2091 126 88 78
0.814095 3.32347 11.2532 112 78 68
2.81069 3.01506 12.8417 107 82 80
2.30605 3.10693 11.1021 108 78 73
0.770537 3.80452 11.7508 103 66 62
1.38053 3.73333 11.6747 54 17 11
2.56733 3.59932 12.6425 119 98 95
2.34784 3.83964 12.3276 57 32 29
2.13723 3.97223 12.4909 84 62 61
-2.7594 -2.83524 9.6742 46 48 22
-0.621991 -3.12185 11.7223 87 92 59
4.35714 -2.66436 10.6064 114 118 76
-2.31685 -0.888335 11.5435 135 130 76
-2.82317 -0.563795 11.4055 96 76 28
3.72689 -1.30694 12.1803 92 96 56
3.86216 -1.19225 11.953 82 82 45
3.37254 -1.07043 12.5071 138 146 99
0.469808 -0.202635 9.96543 66 66 39
1.93378 -0.465796 10.977 74 79 60
3.57883 -0.809736 12.1808 126 120 86
0.822642 -0.09021 10.1715 42 46 18
1.55112 -0.407666 11.9889 150 151 118
0.973309 -0.513454 13.6802 112 88 52
3.1071 -0.591781 12.1063 156 164 123
0.952094 -0.493244 13.8008 102 76 36
0.894859 -0.460493 13.8082 157 146 110
0.717794 -0.434372 13.871 94 76 59
0.989986 -0.409223 13.5277 70 52 36
2.3158 -0.542539 13.1928 149 149 114
2.76503 -0.151461 12.6489 104 80 46
2.93327 -0.0761051 12.2389 32 20 1
-0.00130338 0.695782 9.36347 140 126 103
-0.500889 0.749953 9.9553 108 75 50
3.57487 0.123478 11.1772 128 92 82
-1.01764 0.98855 11.5007 128 109 90
3.61952 0.258436 11.1782 134 108 87
3.3442 0.300334 12.2257 105 82 58
3.37624 0.452433 11.4016 48 26 16
1.3614 0.970996 8.52524 90 64 40
3.2096 0.549577 12.5218 96 76 62
0.431099 1.25156 9.84376 56 40 23
3.3125 0.639989 11.5309 87 64 48
2.47197 0.838859 14.5339 68 58 42
1.62158 1.08748 10.025 43 29 18
-0.0979343 1.41129 10.8365 99 76 56
3.18853 0.75894 12.6678 112 102 92
3.38907 0.829603 11.4301 126 103 90
3.00445 0.867469 13.0167 44 22 12
3.06042 0.963158 10.705 36 14 4
1.2091 1.39482 7.9351 85 94 70
3.407 0.886012 11.7181 90 66 53
3.25837 0.903957 12.6426 94 80 66
2.75997 1.06649 10.2219 51 48 32
3.3162 0.962663 11.7133 96 78 71
3.31487 0.990191 11.6175 39 18 16
-0.147471 1.74386 10.5454 152 116 92
3.13172 1.07455 12.8385 65 50 38
1.49493 1.4618 10.0099 52 18 8
2.93862 1.20093 9.99716 120 100 80
0.603774 1.69633 10.0422 70 24 4
1.20509 1.63861 7.68032 99 100 78
3.12345 1.29298 10.8529 102 80 74
3.10567 1.33522 10.6805 124 89 82
2.57233 1.4601 9.89814 120 90 65
3.00529 1.57203 13.2044 66 59 44
2.94823 1.59676 11.1272 110 92 88
2.94572 1.59942 11.2115 24 8 6
2.81773 1.67126 12.6371 29 13 8
2.9805 1.8944 13.0904 126 114 102
3.04714 1.86161 12.1411 37 18 10
0.588475 2.42438 10.6293 105 68 58
2.8676 2.05918 13.2493 40 18 8
2.90195 2.03993 11.2259 95 73 69
2.83059 2.10886 11.3497 107 86 82
2.89807 2.26557 11.7066 100 70 64
2.88799 2.3946 13.2381 116 102 86
1.69529 2.5002 10.3924 118 86 75
2.7552 2.36957 11.532 90 60 55
0.77055 2.86043 10.8548 114 75 64
0.843166 2.89015 10.8765 52 15 4
2.76393 2.64883 11.6198 80 48 44
0.850576 3.26929 11.1671 106 62 52
2.68315 3.45597 13.0739 91 64 57
2.10077 3.57573 11.6285 110 79 77
2.06331 3.68068 11.7455 110 88 84
2.27037 3.8936 12.217 120 98 97
1.33951 -1.98298 11.9545 128 130 86
2.26315 -1.05342 8.16146 152 148 102
3.27632 -1.54901 10.3563 68 72 48
-0.523934 -1.18233 10.5033 76 78 53
2.82771 -1.23755 10.5947 73 78 56
2.56593 -0.859158 10.537 66 70 54
3.77111 -1.19735 12.1984 83 86 47
0.0668677 -0.431507 10.4103 87 86 57
-1.12184 -0.226065 10.8151 70 44 21
0.441609 -0.319046 10.2408 87 87 52
-0.811707 -0.204106 11.2975 34 35 10
-1.12107 -0.0859038 10.9552 71 56 12
0.896386 -0.440086 13.4665 82 66 44
2.44228 -0.609356 13.0796 66 64 26
-1.05262 0.200919 10.6128 118 101 52
2.55004 -0.566709 12.9409 134 133 94
0.658667 0.14663 9.34514 113 110 60
1.09606 -0.404115 13.3773 64 48 27
-3.24652 0.859061 10.385 123 120 78
1.10949 0.42676 8.98594 93 96 58
-0.942237 0.883129 11.4984 74 54 32
3.18357 0.167458 12.2326 64 32 12
3.33413 0.300965 12.2614 96 72 46
3.23497 0.450913 11.7221 24 8 2
0.782563 1.10996 8.38376 138 129 107
0.84586 1.09874 8.81881 116 104 76
3.51476 0.526365 11.8946 61 41 28
3.05194 0.578131 13.1847 142 142 120
3.15338 0.645985 12.884 77 65 45
1.10791 1.23362 8.21583 100 101 72
3.13108 0.68338 12.9044 70 57 40
1.62432 1.0847 10.0118 70 54 40
-0.470182 1.50021 11.1875 107 86 72
3.31725 0.738745 12.4033 138 132 120
3.34162 0.831407 11.5376 126 103 90
0.320244 1.52273 9.85646 111 68 44
3.1132 0.912447 12.9531 82 67 51
3.31881 0.948983 11.8302 82 60 49
