ply
format ascii 1.0
element vertex 1341
property float x
property float y
property float z
property uchar red
property uchar green
property uchar blue
end_header
1.98976 -0.726939 9.34129 132 102 87
-2.63107 -0.803576 10.4401 117 70 50
2.17482 -0.677846 9.46666 138 103 84
2.21428 -0.530173 9.64775 116 84 68
2.24607 -0.493606 9.61649 25 11 2
2.34057 -0.472647 9.73386 20 14 6
2.13979 -0.425697 9.60945 50 16 5
-1.15031 -0.430659 9.79172 98 80 61
-2.02957 -0.359815 9.0589 130 84 67
-1.42959 -0.335158 9.8985 58 20 10
-4.5924 -0.287648 6.9329 115 96 97
2.89949 -0.226944 10.1082 68 52 32
2.82031 -0.194854 10.6874 106 96 72
2.953 -0.191257 10.7399 74 62 32
3.28471 -0.175737 11.0385 67 44 20
3.01183 -0.0915822 8.71758 68 39 25
1.9918 -0.0779671 10.303 55 32 9
-2.64245 -0.132899 8.40517 132 85 70
1.77612 -0.0496723 9.63319 151 124 106
1.8827 -0.0111753 9.83598 45 25 11
3.02026 -0.00397345 8.87561 159 100 82
-2.50763 -0.0621955 8.63137 74 28 17
1.81205 0.0491361 9.89485 139 113 97
-2.54505 -0.0428295 8.69332 128 84 68
3.02791 0.0782618 9.19528 100 63 43
-3.68423 -0.0316609 9.23719 92 44 28
-2.27535 -0.00228857 8.92945 87 34 17
-3.70655 0.00318732 9.44031 86 37 22
1.90874 0.121939 9.92354 34 18 4
-2.52505 0.0152112 8.67868 72 28 16
-2.60453 0.0678642 8.58489 144 94 77
2.3617 0.245239 9.19674 65 48 40
2.41899 0.243799 9.20114 98 72 58
2.8119 0.271933 9.07711 173 148 138
3.3015 0.293094 9.37935 34 14 6
2.50051 0.27758 9.15814 65 35 18
2.93012 0.289159 9.18215 70 46 33
2.47388 0.315353 9.22528 118 94 82
2.57 0.333344 9.34276 146 111 96
-4.2494 0.0732559 7.01457 118 32 32
2.54147 0.35485 9.33759 150 120 109
-4.24051 0.102731 7.15277 163 118 117
2.80403 0.382265 9.12629 122 98 86
-4.75484 0.0959521 6.93613 189 131 122
3.32281 0.459606 9.27395 99 58 40
2.6874 0.476384 9.22353 84 55 37
3.29003 0.546449 9.23165 172 148 137
-4.29976 0.205207 6.96728 152 104 107
-4.67802 0.202817 6.86209 72 28 22
-4.65705 0.202886 6.85556 178 136 129
-3.80881 0.313108 7.89666 148 66 32
3.01168 0.596798 9.21756 186 161 150
-4.24502 0.324391 7.67083 110 69 38
0.262237 0.695449 8.70064 146 108 87
-0.759854 0.721275 8.74849 137 75 64
2.15971 0.868657 9.11204 223 200 192
2.00814 1.00519 9.51909 98 75 72
2.79678 1.01498 9.10897 134 98 82
2.48969 1.22377 9.91237 235 223 215
2.49932 1.2242 9.20493 132 98 88
3.05021 1.29454 9.08402 134 72 68
-4.35385 0.798249 7.2548 110 102 109
-2.61631 1.29863 9.76644 72 32 20
3.43135 1.45735 9.31345 43 32 24
-4.36471 0.833326 7.33118 116 112 120
-4.39733 0.843749 7.33082 72 68 78
-1.09542 1.24292 8.62416 112 92 78
-4.2891 0.917838 7.45805 103 96 108
-0.946221 1.23981 8.46719 154 130 116
2.72074 1.51719 9.17527 38 20 18
-1.05833 1.27331 8.56553 150 130 118
-0.108655 1.18267 7.84358 62 42 30
-3.96125 1.3384 9.52658 182 130 109
-0.794966 1.25742 8.37235 154 120 114
-2.9673 1.38543 9.45412 116 68 50
-1.10176 1.36486 8.76514 100 78 68
0.519456 1.40273 8.54334 157 98 86
-1.13932 1.36518 8.66151 149 126 114
0.632988 1.43616 8.57362 75 55 46
-1.04324 1.38949 8.56753 140 118 108
-0.511242 1.37463 8.17722 182 162 154
0.00684449 1.42863 8.28011 154 138 128
-4.98394 0.995849 7.18446 136 90 38
-0.543353 1.37408 8.04136 202 182 175
0.021681 1.36508 7.88231 106 92 88
-0.425394 1.37377 7.97131 70 60 58
-0.0425164 1.41812 8.10336 162 144 136
-0.47065 1.43522 8.03227 132 116 110
0.0591386 1.48751 7.97437 46 32 28
0.122467 1.5371 8.06306 170 158 156
-0.453258 1.52031 8.0174 46 26 20
-4.62594 1.30354 7.41149 50 32 40
0.280035 1.81011 8.31103 135 41 37
-4.61081 1.50138 7.52394 120 32 16
-4.6053 1.74292 8.25171 138 94 87
-4.61297 1.71022 8.07342 160 122 107
-0.554851 2.13041 8.57723 106 77 68
-4.85181 1.75784 7.81068 145 79 42
-4.90033 1.85271 7.96077 158 88 78
2.75665 -2.67983 8.60354 158 128 98
2.04503 -2.86286 9.74307 129 112 68
-1.47009 -2.092 9.56794 40 23 9
1.85201 -2.12177 9.63885 132 99 60
1.91522 -1.78362 8.05777 132 88 66
-1.5756 -1.91774 9.46772 97 62 44
1.83537 -1.88465 9.28055 84 73 50
1.84518 -1.89568 9.54684 116 108 62
1.75275 -1.82496 9.24285 128 116 86
1.82263 -1.67074 8.51416 127 113 103
-2.05371 -1.73987 9.66513 160 112 89
-1.80302 -1.71088 9.49322 93 38 21
-2.07207 -1.66445 9.78548 56 21 6
-2.15668 -1.67487 9.93496 99 88 56
-3.42405 -1.52624 9.15506 62 26 8
-3.97054 -1.43358 8.74137 152 105 81
-3.46934 -1.47738 8.94177 169 116 96
-4.07196 -1.41499 8.77412 119 78 56
-1.92613 -1.53622 9.42996 94 26 10
-4.06388 -1.31533 8.70887 57 23 6
2.15114 -1.3147 9.61392 167 156 108
2.46506 -1.12528 8.06218 160 134 124
-1.02163 -1.27142 9.80024 67 44 20
2.15185 -1.23135 9.72878 135 111 71
-1.80226 -1.2111 9.75148 188 132 104
-1.75057 -1.21105 9.71381 210 158 128
2.20336 -1.17953 9.78782 167 152 106
2.34209 -1.17235 9.7674 154 104 80
2.26224 -1.15147 9.55246 130 82 60
2.19084 -1.13501 9.76721 110 72 41
2.83842 -1.02201 8.75693 103 88 76
2.34147 -1.06277 9.5913 100 68 43
2.62951 -1.01924 9.13537 114 96 80
2.8127 -0.965373 9.29878 68 56 42
2.72196 -0.91191 9.2988 84 71 56
2.08588 -0.926787 9.59867 104 48 30
2.07396 -0.909866 9.4144 143 93 73
1.87493 -0.886472 9.29073 104 60 39
2.88668 -0.797406 8.70529 162 84 64
2.63905 -0.792695 8.7749 80 23 13
-3.17814 -0.864524 9.65485 94 54 27
2.62644 -0.791637 9.3546 62 50 28
2.60951 -0.701958 8.58962 161 73 52
2.20058 -0.682098 9.50886 118 90 72
2.69343 -0.629815 8.83827 54 27 22
2.69091 -0.59363 8.65373 146 54 35
-1.22774 -0.626967 9.5449 178 126 106
-3.99203 -0.557424 9.14649 107 62 48
2.65646 -0.468764 8.68589 66 56 54
2.89228 -0.428813 8.74072 50 38 36
-4.5473 -0.420901 6.83574 80 79 110
-1.05747 -0.474995 9.75995 98 60 38
2.45366 -0.417546 9.93218 132 122 100
2.59846 -0.384743 8.88374 46 26 15
-4.24467 -0.385212 9.32947 63 32 19
-2.01539 -0.354848 9.1479 138 91 76
-3.84413 -0.342795 9.30004 88 42 27
-2.74308 -0.277449 8.87937 206 150 114
2.98527 -0.198878 8.74307 104 76 75
3.09336 -0.18237 10.7242 70 46 20
-2.1138 -0.220808 8.91341 155 103 88
-4.02185 -0.19066 9.33394 106 66 57
-2.85162 -0.17484 8.68043 156 102 77
2.94625 -0.0440196 10.7691 56 56 30
2.86198 -0.031245 8.92727 154 122 106
2.77738 -0.0126174 8.81063 176 148 133
1.80813 0.0286136 9.77195 142 118 100
-2.22972 -0.0452665 8.87886 98 46 32
2.17472 0.0865158 10.7205 103 85 64
1.97377 0.0844561 10.2439 92 73 59
1.88873 0.0730288 9.87666 64 44 28
-3.93286 -0.0309852 9.36408 54 18 10
-2.27671 -0.0106595 8.84021 89 36 20
2.21533 0.0970833 10.0281 59 38 27
-2.64695 0.000212638 8.6437 114 62 48
3.24907 0.125487 9.23529 100 67 52
-2.51411 0.066202 9.19986 126 79 65
3.28243 0.195639 9.23819 110 80 68
-2.60882 0.0657561 8.55831 146 97 80
1.91655 0.253511 10.8536 101 78 50
2.40387 0.235388 9.01753 146 96 74
1.85436 0.282969 10.1443 57 30 8
2.09077 0.27865 9.95015 167 132 113
2.39721 0.257351 9.26237 24 13 10
3.39756 0.303049 9.51044 34 15 6
-4.59791 0.0249491 6.85074 174 59 62
3.08483 0.306088 9.41048 77 52 40
2.39425 0.315147 9.3547 87 70 62
2.46638 0.310591 9.2107 83 60 50
2.80958 0.321717 9.01064 168 143 132
-4.77295 0.0757148 6.93085 147 41 35
2.46121 0.377773 9.46236 66 50 44
-4.76684 0.0967233 6.97974 174 103 96
2.74109 0.487039 9.31794 86 58 38
-4.30379 0.183567 6.96498 162 117 122
3.01372 0.520099 9.11752 122 100 83
-4.70781 0.192044 6.9205 84 44 36
-4.30157 0.201357 6.97908 155 116 119
-4.28278 0.224272 7.06406 159 134 132
-4.73768 0.215909 6.95544 178 133 124
-3.80705 0.310563 7.86536 148 66 32
-4.73536 0.225041 6.98471 172 132 121
-4.68782 0.224815 6.96657 184 131 124
-4.68298 0.227982 6.89817 154 95 89
-4.28183 0.312305 7.69349 156 118 97
1.75529 0.720732 10.3279 132 98 80
-3.79058 0.513756 7.88356 130 50 30
2.11721 0.842481 9.13833 180 156 147
2.66329 0.988173 8.92011 154 122 109
2.0345 1.08604 9.537 152 128 123
-4.967 0.58813 7.19714 165 136 117
2.60656 1.25981 9.36767 126 90 78
0.661631 1.26904 8.53211 102 88 76
-1.08631 1.25456 8.6602 110 92 77
-1.04344 1.27557 8.63443 156 136 122
0.593153 1.3517 8.61472 132 108 99
0.716669 1.36039 8.63344 183 165 158
-1.09032 1.3214 8.63639 128 110 103
-0.720355 1.30923 8.48439 123 84 80
-4.41296 0.949275 7.36095 118 111 123
-1.10197 1.35637 8.77284 92 72 62
-1.13858 1.31429 8.42719 155 136 130
-4.48547 0.965738 7.27073 52 49 58
-1.06033 1.38738 8.67304 100 80 75
0.652816 1.46106 8.65807 78 58 50
-4.9425 0.966234 7.05821 132 88 40
0.0204865 1.80511 9.8512 198 180 174
0.0576618 1.40853 8.00982 98 86 81
-4.1634 1.16349 7.70558 65 38 48
0.0804625 1.47489 8.10831 88 74 70
-0.00379013 1.46823 8.03807 116 99 93
0.0201585 1.45501 7.97765 77 63 56
0.148747 1.54549 8.22143 50 36 32
0.123472 1.53393 8.06535 158 144 142
-0.718772 1.77978 8.66666 142 78 67
-4.4548 1.46206 7.61066 161 114 104
-0.461952 1.93694 8.56855 164 122 124
-4.85516 1.44474 7.55413 158 83 76
-4.5341 1.52087 7.74154 146 92 79
-0.598415 1.9625 8.51292 122 96 92
-4.53327 1.61914 7.74714 140 94 75
-0.357044 2.10857 8.53827 109 82 78
-4.2848 1.77076 8.09565 144 62 36
-4.89214 1.81015 7.97138 144 68 38
-4.93136 1.88308 8.05538 157 104 93
1.97539 -2.83412 9.58358 154 139 94
1.91353 -2.76714 9.37927 100 82 42
2.23627 -2.76767 9.66735 104 90 58
1.85502 -2.48108 9.57327 164 155 106
1.82214 -2.24084 8.86111 136 114 97
1.94584 -1.99479 8.34657 98 18 9
1.74465 -2.06731 9.03897 122 103 83
1.87033 -2.11522 9.64588 124 72 40
1.75057 -1.86011 9.10766 81 72 50
-3.82836 -1.63532 8.68509 87 58 36
1.78105 -1.75452 9.04396 102 74 46
-1.75907 -1.74554 9.41035 180 118 98
1.83748 -1.6393 8.58059 76 58 51
1.7775 -1.68619 9.00993 118 92 68
-3.53916 -1.61158 9.00188 84 56 36
-3.82933 -1.55732 8.78224 148 102 79
-1.98655 -1.6924 9.5307 83 32 20
-3.92898 -1.50491 8.7273 164 117 90
-2.07727 -1.63734 9.60114 114 70 48
-3.96013 -1.41882 8.67053 166 117 92
-4.02858 -1.40361 8.77005 68 32 15
-4.06464 -1.31615 8.72879 54 21 6
-3.72283 -1.26827 8.86775 166 112 98
2.283 -1.19188 8.29582 80 46 28
-3.59227 -1.20745 8.79199 60 16 8
2.22573 -1.32403 9.73963 166 154 106
2.22352 -1.28787 9.82728 120 81 42
-1.0496 -1.21664 9.71124 106 84 63
-1.96943 -1.22605 9.96386 170 120 88
-1.06955 -1.17042 9.7455 44 18 7
2.19635 -1.1449 9.44079 128 80 58
-3.72108 -1.00857 8.91245 100 48 34
2.9324 -0.954297 9.00689 130 66 54
1.91225 -0.934083 9.30374 82 14 4
2.62056 -0.938514 9.30467 90 76 56
2.6385 -0.856588 8.59046 162 85 66
2.61815 -0.795216 8.73687 82 28 18
2.65722 -0.812164 9.27564 98 82 68
2.61064 -0.789756 9.31891 60 49 28
1.9694 -0.748148 9.38791 108 84 70
2.77614 -0.679433 8.63015 140 48 30
-2.58524 -0.80993 10.5464 62 23 6
-3.86535 -0.68568 9.33778 97 50 38
2.72312 -0.618563 8.89106 22 10 4
1.86593 -0.635224 9.33986 64 34 22
2.66266 -0.589472 8.61437 128 50 34
-2.33472 -0.63814 9.17905 138 96 68
-1.22751 -0.641155 9.73174 150 100 82
2.41179 -0.557182 9.92423 118 82 59
2.28102 -0.496433 9.69303 30 14 4
2.51612 -0.417491 10.0318 146 136 113
2.60898 -0.384475 8.89778 46 26 15
3.22213 -0.282988 10.8395 68 54 35
-2.74072 -0.307413 8.55907 226 174 137
-4.2033 -0.296905 9.29247 160 106 80
-2.08557 -0.269322 8.81883 106 60 44
2.29017 -0.184892 10.8218 104 86 57
2.78973 -0.155272 8.89665 178 154 144
-2.11108 -0.163828 8.71772 80 30 14
2.09239 -0.0578018 10.5107 51 28 8
2.02858 -0.02876 9.84561 136 104 83
-2.17469 -0.0655906 8.85745 106 50 36
-3.69991 -0.0419639 9.26529 71 26 10
1.91006 0.0923346 9.92686 27 16 4
-3.69941 -0.0119828 9.28764 74 25 12
-2.637 -0.0103775 8.60021 94 44 30
-2.27206 0.00972905 9.07773 91 40 20
2.08311 0.116466 10.1215 88 52 28
-2.52533 0.0574608 8.90596 130 84 70
2.70753 0.174068 8.94497 147 120 104
-2.48123 0.0873491 8.91145 62 18 7
2.42395 0.245404 9.21196 102 74 60
2.14178 0.279378 9.86869 90 52 34
2.37375 0.260178 9.21637 17 8 5
2.69477 0.250149 8.90353 174 146 136
2.52515 0.280993 9.19528 52 24 8
2.44352 0.31722 9.42435 76 60 54
2.55521 0.333413 9.34482 144 116 104
2.40822 0.362782 9.3675 49 34 28
-4.80137 0.084955 7.01863 145 40 34
2.81892 0.400301 9.23224 30 13 2
-4.73695 0.0986475 6.8746 192 147 138
2.83844 0.421609 9.08921 27 20 14
2.69077 0.474032 9.22791 84 55 37
-4.66372 0.163365 6.90876 174 116 110
-4.73604 0.194291 6.93216 182 147 138
-4.67737 0.207339 6.93277 178 138 132
3.05164 0.602229 9.27062 185 161 150
-4.24359 0.282995 7.50824 157 124 102
1.76672 0.804553 9.75783 146 116 96
1.80905 0.857075 9.77615 115 36 21
2.82696 0.817 8.98839 88 48 27
2.15603 0.862635 9.11481 192 168 158
2.34635 1.03791 9.31432 150 114 100
-4.9961 0.597134 7.26979 164 138 120
1.82498 1.23981 9.84616 28 16 7
2.46529 1.25503 9.2051 150 126 118
2.5256 1.28863 9.10647 87 26 24
-4.29342 0.777732 7.43027 124 116 118
-1.9943 1.3657 10.0766 195 142 112
-4.40082 0.841532 7.43715 117 110 116
-4.29513 0.910753 7.42279 120 116 124
-1.09567 1.25946 8.65791 100 82 68
-1.01883 1.29762 8.67533 157 136 124
-0.796531 1.24995 8.35956 124 90 84
0.679238 1.34503 8.55511 202 184 178
-0.781414 1.30165 8.27353 122 95 90
0.558473 1.43598 8.60226 149 129 118
-1.09293 1.42775 8.53788 115 95 88
-0.285291 1.39094 8.10925 150 116 114
-0.515458 1.39452 8.13154 181 161 154
-4.88317 1.02071 7.22616 138 58 32
-0.017156 1.43572 8.15293 187 170 162
0.311835 1.49431 8.37913 146 110 108
0.0751931 1.41711 8.03646 72 60 55
-4.1991 1.18204 7.67735 48 27 36
0.181273 1.57856 8.31647 38 24 20
0.155026 1.56044 8.14047 168 154 153
-4.40805 1.24818 7.5147 31 20 32
-4.25516 1.37804 7.89415 146 85 58
-4.62664 1.30345 7.4163 50 32 40
-4.57668 1.32256 7.42772 45 24 36
-0.624955 1.85891 8.35553 182 134 130
-4.67333 1.52025 7.83526 70 2 2
-4.8886 1.47596 7.66575 162 89 82
-4.59314 1.48658 7.55253 144 82 48
-4.64645 1.79131 8.42928 134 92 84
-0.245329 2.0612 8.51387 62 32 31
-4.71617 1.52115 7.42557 138 34 21
-4.29445 1.79859 8.16388 152 77 42
-4.86074 1.77496 7.86057 142 62 34
2.01291 -2.82568 9.62623 95 70 30
1.94237 -2.13849 9.79752 126 80 44
1.78597 -1.78271 9.28733 88 71 39
-1.75708 -1.7525 9.45272 178 116 96
-1.80836 -1.69855 9.44877 104 48 30
-3.41619 -1.48957 8.93699 88 48 32
1.84278 -1.45416 8.41169 138 111 94
-3.70959 -1.25833 8.72765 140 89 75
2.19106 -1.27424 9.80749 120 95 54
-1.93409 -1.23298 9.76633 77 30 8
2.17892 -1.1504 9.48591 144 93 69
2.60251 -1.01871 9.0893 117 96 82
-3.67616 -0.958709 8.99664 149 90 73
-1.32382 -0.998253 9.73623 82 35 18
2.61606 -0.902159 9.11644 102 86 70
2.72974 -0.871128 8.74428 132 47 34
2.62064 -0.851943 8.9932 149 120 108
2.69906 -0.776537 8.70341 145 48 36
2.58809 -0.795233 9.29846 73 58 38
1.95534 -0.753028 9.37767 145 120 104
1.77313 -0.70032 9.15686 178 146 133
2.54043 -0.597206 8.44851 124 42 24
2.20312 -0.583345 9.58713 146 104 87
-0.999448 -0.556561 9.71798 90 64 42
2.84166 -0.464467 8.97335 73 62 61
2.63671 -0.454722 8.88445 72 45 32
2.4229 -0.470674 9.89231 19 12 6
2.80648 -0.48539 10.3621 60 71 48
-1.09507 -0.477665 9.64762 100 58 35
2.02818 -0.422718 9.59194 50 20 12
-2.46484 -0.408195 8.53449 108 76 44
-2.00805 -0.419466 9.17171 74 30 8
-4.39945 -0.37347 6.98768 42 40 62
-2.0919 -0.296969 8.87503 93 52 32
-1.51061 -0.296478 9.5988 104 62 46
2.82749 -0.223419 10.2502 110 94 69
-4.21371 -0.290523 9.34054 160 104 80
-4.6749 -0.256322 7.19224 158 140 125
2.60013 -0.154671 9.01228 138 82 58
-4.22323 -0.188229 9.31019 94 56 33
-2.62453 -0.165192 8.56228 82 36 20
2.76303 -0.0859419 8.86146 96 61 50
2.06692 -0.0619229 10.5222 72 49 23
1.94677 -0.0658797 10.1027 154 124 102
-2.65894 -0.117332 8.54594 170 116 98
2.76704 -0.00830669 8.82585 175 148 133
-2.19979 -0.0727664 8.79087 92 40 26
-2.25316 -0.0404477 8.78177 112 58 42
-4.21718 -0.0949564 7.1802 116 45 32
1.97313 0.165048 10.0708 124 96 79
2.36254 0.219265 9.06987 74 40 24
2.15977 0.279502 9.92551 94 56 37
-4.60127 0.033425 6.91491 182 70 74
2.59866 0.295247 9.38576 32 9 1
2.4226 0.312856 9.40115 98 78 71
-3.02146 0.179306 8.79611 106 58 42
2.78653 0.316712 9.00868 128 105 92
-4.79267 0.0750463 6.98212 146 46 38
-4.29595 0.0972621 7.02519 124 32 35
2.35347 0.376429 9.23514 12 6 3
2.74657 0.382363 9.12579 32 12 1
-4.74801 0.10979 6.93199 184 154 146
2.82223 0.420503 9.0833 28 20 14
-3.87655 0.242643 7.9905 106 26 8
2.71801 0.527143 9.30162 123 93 74
-4.70637 0.197956 6.90897 81 42 34
-4.26693 0.287513 7.63089 158 131 107
1.74952 0.895235 10.1412 76 48 30
-3.8031 0.520946 7.99969 139 54 32
2.60428 0.871982 8.96813 76 32 15
2.31665 1.06735 9.22775 120 86 72
2.55064 1.23811 9.26393 121 81 67
-0.585499 0.960969 8.07326 76 14 15
-2.64137 1.22685 9.40324 61 22 10
-4.37667 0.831841 7.34576 126 120 126
-4.30099 0.889247 7.5213 24 20 38
0.565944 1.22846 8.36078 98 80 68
-0.854553 1.26723 8.6977 124 64 54
2.69998 1.54733 9.40046 142 113 108
-4.38086 0.900982 7.37881 22 19 32
-0.858884 1.31896 8.88826 156 134 119
-1.0423 1.28376 8.64327 158 136 124
-4.40706 0.944861 7.35464 112 104 114
-0.809715 1.28099 8.21222 106 79 75
-1.05261 1.35984 8.59876 93 70 64
-4.47746 0.96554 7.25557 52 49 58
0.059686 1.32011 8.07369 148 94 89
0.534493 1.43451 8.54454 150 128 117
-0.85086 1.43898 8.78434 150 123 111
-0.992798 1.45128 8.79679 150 127 117
-0.339252 1.33286 8.03419 144 122 118
-4.98566 0.975098 7.15929 125 80 35
-0.0448028 1.42276 8.10496 162 144 136
0.0231943 1.47129 7.95167 38 24 17
-0.624159 1.49596 8.12671 137 62 58
-0.345893 1.49689 8.07928 134 116 113
-0.101354 1.5613 8.24479 136 49 48
-4.26712 1.37854 7.91543 132 54 36
-4.21041 1.36538 7.85147 125 26 23
-4.61883 1.29987 7.3816 43 26 34
-0.742875 1.81931 8.57709 56 18 12
-0.690837 1.95609 8.95588 67 40 30
-4.57186 1.40833 7.44485 71 4 2
-4.42664 1.42597 7.47365 161 115 106
-4.24364 1.61752 8.13634 130 68 38
-4.87056 1.4628 7.60312 170 106 98
-4.59178 1.71904 8.18275 140 100 94
-4.72156 1.52068 7.43312 139 34 20
-0.691621 2.05967 8.50095 102 70 62
2.20707 -2.76836 9.63584 123 110 76
1.70475 -2.21281 8.68129 130 108 90
1.73863 -2.18993 9.25438 127 90 56
1.99197 -1.82915 8.19721 135 88 66
1.8187 -2.09218 9.55135 128 76 44
-1.91255 -1.90261 9.46006 124 82 65
-1.82256 -1.67621 9.29614 90 34 18
2.01838 -1.5348 8.34947 99 28 24
-3.63341 -1.44266 8.73137 56 24 12
-3.4532 -1.43826 8.96559 80 36 25
-2.09884 -1.65338 10.305 60 38 17
-4.02557 -1.39599 8.83612 52 22 11
-3.93235 -1.39582 8.8284 168 117 91
2.48182 -1.46057 9.93308 100 56 28
-1.60989 -1.25578 9.63775 142 92 72
-3.66106 -1.13977 8.83198 184 121 101
-1.9383 -1.24385 9.69997 89 43 22
2.15402 -1.25728 9.72137 118 88 48
-3.94455 -1.0995 8.65869 122 82 64
-1.81196 -1.21216 9.61697 160 104 78
-3.72881 -1.01362 8.89824 85 36 23
2.33423 -1.07417 9.58881 76 42 18
-3.73422 -0.987862 9.12169 101 48 36
-1.29928 -1.04341 9.71017 136 90 72
-1.32467 -0.988037 9.70424 79 34 18
2.68913 -0.903069 9.23116 100 84 69
1.76625 -0.880936 9.25799 139 102 70
1.97214 -0.879362 9.26691 162 126 106
2.70881 -0.78064 8.8817 90 37 28
-1.25707 -0.646129 9.60618 129 82 65
-1.86797 -0.609741 9.23866 117 70 46
2.30313 -0.576339 9.76797 145 100 80
1.97325 -0.499968 8.9171 54 68 42
1.99262 -0.470453 9.65582 126 92 71
-4.56078 -0.414264 6.86666 90 87 117
-4.32113 -0.483229 9.15306 105 78 54
-2.45928 -0.409188 8.67362 108 76 42
-4.65427 -0.373237 6.94132 94 90 96
-4.42047 -0.286125 7.01119 160 145 128
2.1177 -0.16948 10.5044 95 74 42
-2.12719 -0.162706 8.77989 83 32 18
2.75322 -0.0665645 9.01175 117 71 50
-2.19137 -0.123713 8.76929 178 124 110
-2.77585 -0.0937178 8.57233 112 59 44
-2.21629 -0.0642968 8.73242 84 31 18
2.11248 0.0590872 9.9696 34 16 8
-4.84237 -0.0502535 7.06708 142 75 60
2.69592 0.155388 8.89853 131 106 90
-2.53867 0.0847732 9.11426 140 92 82
2.24438 0.280763 10.0759 97 58 39
2.53176 0.333061 9.32512 100 78 67
2.65398 0.380242 9.78242 50 36 30
2.89897 0.356457 9.19555 148 123 111
2.26128 0.356764 9.05936 10 8 6
2.79738 0.399917 9.19794 29 10 0
-4.71013 0.10452 6.82551 184 154 148
2.87463 0.423361 9.16217 25 20 14
-4.302 0.13926 6.97801 153 102 105
-4.76963 0.188926 7.0175 182 148 142
1.80969 0.632404 10.8203 114 98 72
-4.31362 0.220502 7.08435 161 132 132
1.72937 0.851831 9.91729 135 111 94
-3.7768 0.497716 7.82683 134 42 26
0.237008 0.708802 8.68006 128 37 26
-0.775887 0.717832 8.65719 128 52 44
2.585 0.936948 9.07468 158 113 100
-2.71288 1.03697 9.54266 140 94 74
-1.80831 1.12916 9.78964 179 123 103
0.722341 1.32591 8.75557 75 56 44
-4.35365 0.955485 7.63131 101 94 107
-1.13184 1.26427 8.59074 95 74 61
-3.94668 1.32033 9.4616 180 130 110
-4.30693 0.963205 7.4839 26 18 34
-0.367877 1.19872 7.85475 92 54 42
-0.832402 1.24522 8.0991 111 85 81
-1.13739 1.325 8.49414 114 95 88
0.0490322 1.31672 8.06547 136 84 77
-0.938452 1.36731 8.45056 146 122 109
-1.00719 1.43354 8.7147 150 127 117
-0.387081 1.36351 8.14983 142 129 126
-1.07625 1.46723 8.6967 118 98 91
0.0972927 1.44806 8.14858 85 72 66
-0.538449 1.45746 8.05898 90 80 76
0.130392 1.55135 8.08055 168 154 152
-4.41302 1.24429 7.53296 32 19 30
-4.60808 1.32285 7.45697 45 31 46
-0.486487 1.93332 8.54912 145 117 114
-0.285843 1.90505 8.40542 56 20 18
-0.204568 1.90749 8.39526 129 87 85
-0.396409 1.96684 8.6236 68 44 48
-4.5952 1.48627 7.56354 144 80 49
-4.50352 1.63088 7.95997 80 12 11
-4.32616 1.85966 8.62853 148 96 88
-0.228975 2.07789 8.59293 62 30 28
2.27102 -2.79897 9.76059 124 110 78
1.67525 -2.17298 9.14461 152 116 78
-1.41079 -1.97972 9.49956 44 28 16
1.71196 -1.88411 9.05918 86 78 58
1.90342 -1.60595 8.38956 112 84 74
-1.44307 -1.68331 9.33754 116 78 61
-2.17008 -1.74123 9.88294 123 115 76
-2.00103 -1.69594 9.6035 60 12 4
1.99849 -1.45997 8.55622 90 54 30
1.89645 -1.41623 8.29754 130 90 72
-3.94937 -1.39866 8.7961 166 116 86
2.28619 -1.422 9.61458 116 72 42
-1.20071 -1.39581 9.76591 38 14 9
-1.0617 -1.39068 9.77309 85 66 30
2.37579 -1.3086 9.6176 118 65 33
-1.35695 -1.26471 9.58111 120 72 58
-1.1064 -1.24221 9.71147 39 16 10
2.64033 -1.06947 9.25654 82 70 50
-1.28369 -1.05366 9.6641 127 82 64
2.70527 -0.835224 9.26381 66 58 44
2.75667 -0.81506 9.59527 90 70 52
-4.65575 -0.372935 6.92739 130 124 117
-4.40483 -0.368718 6.98623 38 36 60
2.60976 -0.369377 10.2268 124 112 90
-1.19603 -0.347742 9.95612 88 51 36
2.5106 -0.303435 9.99559 158 149 129
-2.75172 -0.316766 8.43162 212 156 120
-1.31273 -0.298683 10.8132 86 46 32
2.73514 -0.237502 9.88142 96 76 58
3.10162 -0.212565 10.9527 80 65 32
-2.06542 -0.243912 9.44987 118 72 52
-4.64211 -0.245993 7.04111 156 143 126
-3.07137 -0.206197 8.49401 88 47 24
-2.12675 -0.167086 9.04384 84 33 20
1.76685 -0.10647 9.68623 158 125 106
-2.63539 -0.152661 8.58208 75 28 14
-4.18675 -0.141137 9.36865 158 142 122
1.90039 -0.0387931 10.2511 76 55 28
-3.92703 -0.0639244 9.45021 48 16 9
2.75971 0.0883687 11.1707 96 70 54
-4.21166 -0.0961555 7.12289 117 31 22
2.19999 0.263714 9.9643 90 54 36
-4.61332 0.031204 6.92956 181 69 72
2.4746 0.32388 9.22039 138 109 96
-4.80419 0.0688413 7.01065 146 46 39
-4.24422 0.0997165 7.01715 161 144 143
1.70219 0.429928 10.0046 142 118 103
-4.66416 0.189673 6.88258 186 144 140
-4.79361 0.230958 7.02257 140 61 46
-4.78268 0.267819 7.04074 144 37 34
-3.60454 0.419108 7.93841 136 22 23
0.185571 0.685789 8.58897 124 54 39
-3.79982 0.529048 8.03243 130 30 18
1.69724 0.906066 10.0717 101 74 56
1.95683 0.927985 10.1493 102 26 18
-4.33295 0.801371 7.44846 33 28 40
-4.2866 0.817395 7.43801 28 22 34
-4.30711 0.874371 7.50719 22 20 38
-4.4315 0.864778 7.51487 100 94 104
-4.40199 0.906989 7.53572 25 22 38
-0.854589 1.24646 8.64102 110 23 16
-4.30389 0.895039 7.40485 91 88 99
-0.89372 1.15844 8.00872 111 65 56
-1.04492 1.35586 9.00795 91 72 56
0.654665 1.44006 8.68074 80 60 51
-0.38144 1.31359 8.07648 150 112 110
0.0676188 1.33417 8.12784 140 90 83
-4.06109 1.55443 9.91866 174 126 94
-0.559221 1.36004 8.04898 152 132 122
0.0657704 1.4146 8.06525 99 86 82
-4.59493 1.31584 7.39904 31 20 35
-0.619948 1.89189 8.4433 110 78 72
-0.442531 2.04502 8.71379 90 70 68
-4.2446 1.73611 8.2288 146 103 94
2.43179 -2.66698 9.48841 149 136 96
1.82823 -2.13083 9.60518 163 150 104
-1.56013 -1.95472 9.47849 78 45 28
1.65311 -1.89428 8.95139 80 74 54
-1.67381 -1.8177 9.44356 162 106 85
-1.44849 -1.85347 9.5889 90 56 40
-1.37672 -1.7563 9.63472 68 35 22
-2.1241 -1.69757 9.71651 40 20 10
-1.95122 -1.49764 9.24732 101 34 16
-1.29604 -1.36106 9.37077 36 18 12
-3.95409 -1.21588 8.59054 166 115 96
-1.07017 -1.33973 9.69924 86 58 31
-1.90157 -1.31644 10.0757 66 22 4
2.03718 -1.26069 9.49087 118 84 42
2.10435 -1.17226 9.66133 162 156 109
2.68113 -0.813544 9.4726 94 74 56
-2.37812 -0.705404 9.47679 90 44 26
-1.23824 -0.514241 9.75551 28 8 4
2.30653 -0.41173 9.66685 122 113 90
2.06005 -0.342011 9.62085 138 106 92
-1.17036 -0.355893 10.1761 90 50 34
2.48051 -0.262116 9.44753 96 76 58
1.88129 -0.0708262 9.50921 147 116 96
-1.88826 -0.0971585 9.34141 104 55 37
-2.68922 -0.0943573 8.44088 189 129 106
1.94789 0.0105516 10.204 130 106 82
-3.94636 -0.0785473 9.02861 92 42 26
1.77167 0.0944441 9.85614 18 13 7
2.51354 0.206255 9.16483 164 110 86
-4.2389 0.0337992 7.07496 125 18 16
1.87141 0.311938 9.76968 128 96 78
-4.2842 0.178945 6.9752 159 145 146
1.81767 0.639324 10.867 115 100 74
-4.23494 0.25757 7.42736 136 86 63
-4.24819 0.342077 7.6 74 8 4
-4.18651 0.341632 7.55307 104 48 18
1.86757 0.714403 9.70354 132 62 40
0.245287 0.685275 8.71897 159 138 115
-0.500893 0.825665 9.65323 147 111 95
-2.46195 1.28459 10.3073 60 20 8
-4.31894 0.782335 7.2825 24 16 28
-2.68169 1.28078 9.71972 70 30 18
-4.42826 0.828912 7.29058 31 22 36
-4.40989 0.839672 7.39796 62 54 64
-2.57381 1.43298 10.2002 108 74 64
-4.30788 0.905559 7.43721 54 50 62
-0.943334 1.29264 8.83923 154 134 118
-0.88337 1.29347 8.82738 154 133 118
-0.247829 1.17611 8.04192 76 60 47
2.53058 1.48725 9.13352 146 116 112
-2.62308 1.41719 9.57144 74 36 26
-0.806555 1.24367 8.22237 114 86 80
0.612295 1.39783 8.56775 84 64 54
-2.6562 1.48607 9.61969 78 41 29
0.505998 1.44793 8.54656 142 66 60
-0.452881 1.39463 8.05023 70 56 51
-0.0504745 1.38296 7.9013 100 84 78
-0.125571 1.55735 8.10584 144 88 82
0.245409 1.79208 8.30565 152 32 26
-0.612482 1.78474 8.11083 144 69 66
-0.777629 1.94879 8.66783 116 87 80
2.90329 -2.73552 8.52617 214 161 137
1.91863 -1.82936 8.12134 154 108 81
1.92506 -1.59304 8.39094 100 72 60
2.55615 -1.38613 7.95988 116 92 85
1.99031 -1.39826 8.41305 142 114 98
3.46479 -1.28113 9.24146 60 36 26
3.83528 -1.21602 9.74259 121 94 82
-3.65489 -0.860678 9.14997 206 149 116
-2.62036 -0.800211 10.5239 108 66 44
2.4774 -0.624217 9.74726 80 86 51
2.9724 -0.458228 8.7733 98 58 42
-1.14858 -0.434062 9.82091 93 72 50
-2.72138 -0.354946 8.57485 223 168 130
-4.59141 -0.23769 6.96383 143 126 120
3.01897 0.0344888 8.9898 156 114 94
-4.76388 0.0804673 6.91419 144 48 40
3.05071 0.531975 9.15858 121 100 83
-0.209589 0.785064 8.26492 126 76 63
-4.32557 0.946869 7.42323 28 25 37
-4.3201 0.952142 7.48768 83 81 92
0.0802174 1.43609 8.06396 74 62 58
-0.429349 1.44961 8.0129 77 62 55
0.0929342 1.50864 8.04359 62 43 37
-0.558334 1.94711 8.55718 146 127 123
-4.24335 1.73359 8.16909 164 118 107
2.87876 -2.68796 8.53159 172 121 91
2.36132 -1.83424 7.99301 156 114 86
1.9149 -1.82834 8.11373 154 108 81
-2.05783 -1.74306 9.70994 134 88 69
-4.07617 -1.35659 8.74938 122 78 52
-3.3143 -1.2526 8.93152 98 36 17
-1.94371 -1.30736 9.93565 97 70 34
2.20683 -1.29776 9.83352 146 130 82
-1.92221 -1.28756 10.0463 90 44 20
-1.97646 -1.22574 9.85213 162 114 80
-3.35387 -1.06006 9.22808 56 18 6
2.42276 -1.05922 9.73195 136 103 76
-4.24897 -0.906772 9.25808 110 83 61
2.41613 -0.890866 9.70127 106 73 47
-1.24872 -0.857427 9.58352 140 93 77
2.47462 -0.814663 9.80367 120 107 76
-2.07598 -0.302389 8.91292 76 31 14
2.88526 -0.222518 8.71649 138 115 116
3.1822 -0.151258 8.91524 92 58 46
2.98035 0.0318785 8.9388 158 117 94
-3.00736 0.189641 9.03411 107 61 43
-4.98787 0.522671 7.29076 153 102 84
-0.533518 0.925189 8.05959 78 27 22
-4.38168 0.865549 7.36421 58 52 62
-4.30857 0.938732 7.45527 114 111 119
-2.95922 1.38126 9.32638 126 79 58
-3.17645 1.45248 9.41383 58 23 12
-0.269939 1.40027 8.15328 152 112 110
-0.415459 1.40779 8.15024 100 84 78
-0.352881 1.44552 8.13137 100 88 88
-4.41572 1.2589 7.52293 30 20 31
-4.41048 1.28071 7.56078 22 18 31
-4.56019 1.27358 7.3839 49 29 40
-4.55219 1.28528 7.35698 70 50 60
-4.55829 1.31699 7.37507 45 20 32
-4.54236 1.51804 7.78129 160 119 99
-4.59968 1.48591 7.57264 131 65 36
-0.285623 2.11965 8.57311 84 64 64
-4.57576 1.87104 7.84313 132 52 26
-3.434 -1.60469 9.15324 51 26 6
-4.06245 -1.36455 8.83492 121 80 58
-1.5953 -1.24741 9.6921 150 101 79
-3.17239 -0.876482 9.44675 96 58 29
2.65724 -0.8293 9.29123 91 80 63
-2.74523 -0.319676 8.63823 222 172 129
-3.17464 -0.321999 9.02305 130 88 63
-2.96958 -0.24881 8.94198 82 36 16
-3.98572 -0.000170392 9.42758 114 82 66
-4.2506 0.0820905 7.09625 148 90 90
-4.23062 0.107864 7.08919 164 135 132
-3.88783 0.240764 8.01959 109 30 4
-4.02984 0.303042 7.75719 161 138 106
-0.213484 0.614736 8.25201 106 84 62
1.73206 0.83727 9.62071 118 34 22
2.65911 0.83374 8.80433 156 112 93
2.26592 1.06915 9.23319 118 82 68
-4.98158 0.943362 7.0303 157 120 84
-4.37844 1.22226 7.61717 45 24 36
-4.21282 1.30755 7.70129 82 2 5
-4.24982 1.37313 7.74494 120 27 9
-4.6077 1.29063 7.34433 44 28 38
2.8163 -2.66965 8.63156 136 86 49
1.79513 -1.94514 8.2669 138 96 70
1.92563 -1.61903 8.41518 116 86 75
-3.50527 -1.65383 9.07609 38 22 8
-4.06703 -1.40251 8.77061 128 86 62
-3.40851 -1.30374 8.82599 116 63 45
2.17843 -1.22901 9.77715 132 105 63
-1.80978 -1.20478 9.80673 189 134 102
-1.33193 -1.10927 9.76379 66 22 12
-3.31323 -0.991375 9.27008 56 20 5
-4.24557 -0.667236 9.26058 59 23 10
-4.21258 -0.380961 9.18464 63 32 18
-2.11651 -0.221019 8.85735 177 124 110
-4.59959 -0.234302 6.97536 153 135 121
-2.84769 -0.157886 8.61932 168 110 85
1.84082 0.254412 10.2366 140 88 62
-3.00774 0.191068 8.95986 104 58 40
-4.7859 0.0672595 6.97012 146 38 33
-4.23298 0.0798675 7.04162 148 89 90
-4.29937 0.223738 7.09463 162 128 124
-3.80493 0.308832 7.84809 149 62 32
-4.21403 0.304784 7.49712 128 87 62
-0.63822 0.794717 8.0275 69 13 10
-1.04001 1.4037 8.58864 158 136 124
-4.44567 1.0456 7.3522 18 14 26
-4.26334 1.3762 7.77105 126 22 15
-0.735443 1.81123 8.56502 110 58 49
-0.620392 1.95425 8.51452 110 86 77
-4.58423 1.88881 7.86141 138 70 30
-3.99289 2.15551 8.16448 123 49 44
-1.56213 -1.92476 9.47729 110 70 45
1.79607 -1.81067 9.42064 134 126 80
-1.99406 -1.70317 9.60943 90 40 27
2.00234 -1.53064 8.33326 122 51 45
-1.33659 -1.2625 9.65981 114 66 54
-3.68872 -1.14641 8.89609 162 99 80
2.02955 -0.965454 9.52827 90 26 8
1.84134 -0.727735 9.54032 102 78 50
-2.7386 -0.309906 8.5399 224 174 133
-4.17537 -0.150438 9.31455 164 145 126
-4.67515 0.202274 6.92386 180 138 128
-4.96865 0.574201 7.26977 136 55 38
0.198626 1.40949 8.13496 159 130 130
-4.19066 1.17102 7.66149 67 52 56
-4.41764 1.25691 7.543 30 22 33
-4.26558 1.64518 8.16497 125 50 25
1.87714 -2.37487 9.24115 143 120 98
-1.49437 -2.11151 9.68783 52 30 16
-3.87979 -1.46014 8.76417 156 107 81
-1.76882 -1.20725 9.60167 176 120 90
2.07871 -1.13046 9.58019 164 156 106
-1.93447 -0.637075 9.41526 123 77 47
-1.00965 -0.559191 9.68399 94 64 41
-2.04508 -0.328922 8.99158 144 94 80
-4.62633 -0.243589 6.9995 160 143 128
-2.49637 0.110251 9.26482 100 76 58
-4.28494 0.210165 7.08291 159 142 142
-4.82482 0.436675 7.16414 167 136 121
2.59841 0.838083 8.76836 156 110 90
-4.38697 0.622332 7.25085 67 0 0
2.79006 1.30837 9.1296 94 102 92
-4.33003 0.798135 7.45378 30 22 32
-4.41942 0.955049 7.38008 101 95 106
-4.46412 1.04739 7.39463 18 14 26
-4.7684 1.92065 7.78429 180 97 50
-4.08832 -1.51474 9.13218 126 84 62
-2.35972 -0.704765 9.60668 95 51 24
-1.00735 -0.575025 9.7315 96 66 44
-1.90444 -0.384349 9.14205 146 92 65
-2.05572 -0.311669 8.93729 123 76 60
-4.29676 -0.273563 9.29753 143 124 100
-2.62279 -0.0170107 9.13153 170 118 102
-4.74604 0.106061 6.9346 191 154 146
-3.84014 0.18648 8.04483 164 128 110
-3.87868 0.251511 8.0105 112 25 6
-4.88878 0.436241 7.30846 162 142 122
-0.642657 0.80766 7.99589 31 6 2
-1.17036 1.09736 10.0099 146 109 92
-1.82803 1.32898 9.81198 192 138 104
-0.793854 1.28257 8.30911 109 81 76
0.157573 1.36465 8.0845 160 124 120
-0.467679 1.38902 8.03954 98 82 78
-0.354187 1.64679 8.47769 135 114 107
-4.61454 1.92211 7.88555 144 80 30
-4.70119 2.00842 7.91456 164 104 42
-3.97645 -1.53267 8.84404 137 91 62
-1.52853 -1.60636 9.51324 154 100 80
-1.00198 -1.24385 9.71063 138 133 87
-4.26497 -0.911521 9.14369 120 115 73
-3.21455 -0.895219 9.51932 95 59 32
-1.10134 -0.693789 9.53071 24 8 3
-0.983418 -0.672078 9.67786 124 100 80
-4.76242 -0.475888 7.31501 90 90 100
1.91393 -0.491217 9.74952 94 72 48
-2.22286 -0.443385 9.04684 154 109 92
-4.39945 -0.377121 6.97856 40 38 57
-4.41636 -0.293455 7.01151 160 148 128
-4.65395 -0.259098 7.05073 160 144 128
-2.63007 -0.178061 8.53205 130 81 58
-4.0299 -0.167583 9.21866 92 50 32
2.12949 0.0465552 9.96035 39 18 8
-4.23399 -0.0872834 7.24137 114 32 22
-4.04478 -0.0491132 9.08115 116 78 52
2.55403 0.279328 9.40934 38 22 16
-3.83079 0.188427 8.52105 160 112 92
1.75545 0.448015 10.1342 148 123 108
-3.8566 0.233465 7.94665 114 24 5
2.3042 1.03093 9.21736 144 108 96
-0.200505 1.12735 7.87837 45 10 4
-4.37091 0.99084 7.51414 21 18 34
-4.43062 1.25329 7.65634 23 18 30
-4.73554 1.50919 7.4497 144 32 24
-4.37902 1.82674 8.06442 142 77 28
1.94892 -0.715955 9.34599 154 126 114
1.83118 -0.653053 9.29736 62 33 21
-4.2019 0.289511 7.41989 90 48 26
-0.454913 1.47237 8.07816 84 66 60
-4.52001 2.37639 7.71151 128 40 39
-0.946388 -0.800426 9.65639 139 98 73
2.23786 -1.26229 8.23549 167 138 128
-3.52859 -1.30286 8.83871 107 52 34
-3.51878 -1.28191 8.85184 84 30 11
-4.40563 0.947378 7.34923 104 98 108
2.09601 -1.42987 8.24881 31 6 4
-0.975497 -0.799898 9.65079 156 108 84
-3.00876 -0.254207 8.87606 78 34 14
-4.27441 0.793959 7.34476 29 20 30
-1.58971 -1.72448 9.41458 98 54 38
-3.61344 0.292903 8.04587 120 27 22
-3.37643 -0.755004 9.14524 158 112 92
-3.20272 -0.425495 9.09044 93 49 25
-2.74594 -0.320001 8.55237 224 170 132
-0.616731 0.779105 8.05482 68 18 11
2.11327 -1.44563 8.18331 156 108 102
-1.17616 -1.04665 9.5872 138 89 72
-2.18808 -0.151776 8.759 112 62 50
-1.82356 1.31973 9.76684 203 150 119
-4.37164 0.821555 7.33643 108 102 108
-4.29891 0.924251 7.48087 121 116 124
-4.1727 1.17195 7.72229 68 38 47
-1.93534 -0.412047 8.84056 103 60 36
-4.32146 -0.547252 9.15414 118 94 67
-4.36159 0.796588 7.46114 32 20 26
-4.32234 -0.766263 9.20966 142 124 100
-1.8218 -1.67737 9.44876 111 52 30
-4.58332 -0.287482 6.92294 107 92 93
0.118236 1.53908 8.06423 171 156 154
-3.61734 -1.46142 8.75716 70 36 22
-1.50619 -0.448929 3.20051 137 107 74
-4.59304 0.0344222 6.91618 180 61 63
2.59137 1.38268 9.13788 156 83 68
-4.28588 0.983039 7.52659 114 104 110
-4.94854 0.579231 7.21516 149 88 68
-4.43321 -0.262284 7.02124 138 122 113
-4.27742 -0.336663 9.24019 144 124 103
-3.20062 -0.857829 9.34321 96 58 25
-4.63133 -0.457378 6.87362 90 90 93
-4.39186 -0.458285 6.96575 56 52 60
-4.37931 -0.414969 6.96868 83 74 72
-4.39682 -0.372007 6.98424 46 41 54
-4.76538 2.00462 7.88901 178 104 42
1.86831 -0.974605 8.31447 126 118 76
-4.63143 -0.457669 6.85522 129 123 116
-4.39441 -0.460856 6.96753 44 40 56
-4.63275 -0.423173 6.85833 88 86 91
-0.334146 1.35921 8.02055 137 121 116
-4.39384 -0.463157 6.96607 48 44 55
2.98599 -2.66495 8.51259 186 136 113
-1.78232 -1.74494 9.47224 178 115 90
-1.44163 -1.69444 9.46377 116 77 54
-1.92573 -1.32805 9.88815 67 20 1
-2.5909 -0.831012 10.5523 66 28 6
1.89438 -0.458115 9.71505 79 54 28
2.01676 -0.422687 9.51302 49 12 5
-4.26371 -0.411785 9.21902 68 36 16
-1.78797 -0.218245 2.66862 100 72 52
2.62707 1.50232 9.14446 42 22 16
0.044744 1.45225 8.16178 89 73 65
0.0141159 1.53087 8.04375 68 51 47
-0.989318 -0.702348 9.72743 71 35 18
-2.21423 -0.0929861 8.72818 126 72 56
3.37662 0.197119 9.21828 94 71 48
2.78385 0.348792 9.04538 160 131 117
-0.593332 0.901434 8.02082 88 28 26
-4.16152 1.16459 7.70071 62 34 42
-0.0104226 1.44988 8.06672 90 72 66
-3.99734 2.16709 8.13023 119 28 28
2.03543 -2.86254 9.67759 104 88 45
-2.62958 -0.809389 10.5164 117 72 47
2.92411 -0.47152 8.67045 96 56 34
-4.24891 -0.424595 9.30823 71 34 22
1.86183 -0.0442653 9.80974 154 124 106
2.6108 0.373346 9.70327 79 65 60
-4.42637 1.26086 7.55104 47 28 32
2.32096 -1.82286 7.92118 142 100 73
2.01349 -1.75463 8.32762 108 64 39
2.09337 -1.65039 8.07694 90 40 16
2.0399 -1.00386 9.63031 90 38 12
-2.15559 -0.151502 8.74562 117 63 50
2.87982 0.337093 9.12 170 144 132
0.261442 0.700009 8.69222 139 90 71
-4.39338 0.921426 7.38787 21 16 28
-4.41874 1.8383 8.104 128 56 24
-1.36524 -1.12455 9.63689 64 22 11
-3.17689 -0.857683 9.33445 94 56 25
-3.61189 0.428758 8.06538 130 30 24
-4.23751 0.169077 7.00855 95 78 74
-4.29413 0.173349 6.94291 166 130 132
-0.569373 1.46818 8.27311 152 118 110
-2.10307 -0.295745 8.96325 90 48 30
2.53565 0.215642 9.2254 166 112 89
-4.05475 0.295697 7.84699 157 142 121
-4.20361 0.26422 7.32489 149 108 88
-3.76164 -1.43812 8.78982 32 13 9
-4.56027 1.53769 7.9056 158 109 96
2.004 -2.0818 8.57564 144 119 94
-1.57483 -1.72644 9.4345 44 10 2
2.67107 -1.40538 7.93596 66 51 44
2.64658 -1.3637 8.01902 216 197 192
2.64912 -1.35766 7.9173 97 78 72
1.99227 -1.40104 8.41204 143 114 97
2.58472 -1.34221 7.90256 212 194 188
2.62434 -1.30452 7.88746 172 150 144
2.59186 -1.30384 7.9689 73 53 48
3.16835 -0.39771 8.84325 152 86 61
3.22414 -0.179897 8.85759 120 72 48
3.15409 -0.0691206 8.8622 174 138 118
-3.83985 -0.340542 9.29833 109 58 34
3.15043 -0.0173684 8.90675 179 144 126
3.08951 0.0527405 9.00452 70 30 14
3.11701 0.0782238 9.03527 144 109 86
2.07075 0.101305 9.85675 88 66 50
3.43587 0.192981 9.24205 76 44 22
3.42028 0.204647 9.30799 60 38 20
3.47356 0.45935 9.21777 31 18 10
2.46707 0.92669 9.34069 142 101 84
-4.30891 0.22711 7.06857 160 120 122
-4.73828 0.236903 6.97059 172 125 118
2.02657 1.15414 9.51634 118 93 90
-0.426623 1.47235 8.09313 69 51 46
2.03935 -1.65859 8.08166 138 92 70
2.56207 -1.3429 7.87081 206 186 181
2.57392 -1.30656 7.95516 61 40 34
-1.8806 -1.1592 9.71907 140 86 56
2.01742 -0.896398 9.60189 121 82 59
-2.41429 -0.600132 8.66107 49 16 2
-2.10144 -0.56743 9.26535 171 124 98
-1.16717 -0.491274 9.77695 55 21 8
2.811 -0.0675899 8.93312 79 44 32
-3.15653 -0.323494 8.91905 128 88 63
1.99979 0.00958049 9.62159 130 103 86
3.17633 0.0905932 9.12945 146 109 86
1.95424 0.269521 9.99021 92 54 28
3.46439 0.39888 9.27941 54 33 16
-4.31084 0.183782 6.96472 134 54 60
-2.003 1.33728 9.92257 203 152 119
-1.08538 1.38367 8.62507 120 100 95
-4.27555 0.891792 7.46888 26 20 35
-4.2998 0.95698 7.51645 28 24 35
-4.39767 0.930871 7.38717 46 42 50
-4.41527 0.953724 7.35997 110 102 114
-4.21184 1.18815 7.69776 49 26 32
-4.21522 1.36103 7.81765 114 26 10
-0.260346 2.09774 8.58338 90 68 70
-4.63443 1.51198 7.59942 114 28 12
2.90488 -2.73518 8.51766 170 116 92
2.8766 -2.68947 8.51802 146 94 65
2.00222 -2.08132 8.5725 148 124 100
2.03049 -0.742658 9.40002 122 89 70
-1.22187 -0.64568 9.77107 148 96 74
-2.01877 -0.581032 9.38705 144 99 72
2.06325 -0.00650425 9.70643 154 124 102
-4.55848 -0.419373 6.84555 80 80 104
1.92922 0.266446 9.92235 92 53 28
2.70954 0.84146 8.89837 146 102 81
-4.22027 0.142585 7.05184 162 136 134
0.313874 0.725372 8.85153 125 64 48
-4.95209 0.580022 7.23694 131 46 25
-4.21485 1.1891 7.71891 50 27 32
-0.233554 2.07958 8.56873 62 34 32
-3.41906 -1.32131 8.89587 150 98 81
-3.83055 -0.342912 9.23591 92 44 24
2.01261 -0.00455278 9.67472 160 129 108
1.89665 0.195621 10.1323 90 68 46
-3.99281 0.00625272 9.4652 154 128 108
-4.2717 0.215489 7.06988 155 140 141
-4.69581 0.192943 6.88931 103 58 54
-2.69625 1.05231 9.62558 140 93 72
2.61609 1.37328 9.13318 183 126 97
2.06052 -2.11708 8.7091 148 120 98
2.01717 -1.82693 8.26059 134 89 63
2.42407 -1.30123 9.65547 118 72 35
-1.75584 -1.21624 9.73068 186 132 102
-1.17543 -1.05374 9.62099 141 94 72
1.95433 -0.451818 9.53721 145 110 89
-4.57768 -0.414462 6.89711 80 82 104
-4.42218 -0.286805 7.00218 152 140 128
-4.0372 -0.0517082 9.01434 108 75 54
1.75888 0.42352 10.1735 142 112 98
-4.22604 0.135726 7.04908 158 138 137
-4.3081 0.140137 6.95989 132 56 61
0.267409 0.708351 8.76478 128 66 50
1.98542 1.06556 9.48871 122 98 97
-4.78982 0.228779 7.02032 142 70 60
-4.76707 0.249696 6.9899 143 48 46
2.45179 1.31326 9.33428 102 54 55
2.52663 1.49114 9.29035 40 19 16
-4.07569 0.713565 7.64616 162 122 104
-4.94926 0.576487 7.24534 134 36 24
-4.38726 0.909949 7.40026 24 21 35
-0.460197 1.38612 8.08058 126 110 104
-4.36105 1.20925 7.50126 26 15 29
-4.24559 1.35952 7.80444 134 60 33
-0.304986 2.12317 8.5831 76 52 49
-1.50086 -1.59369 9.50999 138 88 72
-4.01534 -1.45173 8.69076 115 74 52
-1.57934 -1.33817 9.54055 56 18 6
-1.50247 -0.305533 9.52889 94 52 38
1.92955 -0.108524 9.7513 90 66 34
-3.98248 -0.00313739 9.36048 120 89 72
-4.22207 -0.0849137 7.21981 118 44 34
-4.77755 0.0703535 6.93613 145 48 39
-4.68728 0.115247 6.87628 177 110 106
-4.66887 0.200098 6.90738 184 139 128
-4.98601 0.531375 7.30218 132 66 50
-4.40974 0.81628 7.26898 25 16 28
-4.31019 0.885691 7.53121 23 20 37
-0.480049 1.37088 7.98472 122 106 100
-3.46574 -1.63859 9.30659 46 27 10
2.28047 -1.40292 9.60451 134 86 56
2.67453 -0.897283 9.14362 128 102 92
-4.01305 -0.56497 9.18089 98 52 38
-3.93013 -0.0247157 8.99331 160 134 114
-3.71312 -0.052088 8.43614 63 22 10
-4.71921 0.112715 6.89403 185 153 146
-0.781093 1.29608 8.31842 120 94 87
-0.412586 1.39368 8.04804 93 80 76
-4.43082 0.953051 7.39921 80 73 86
-0.536246 1.43948 8.05533 107 94 90
0.113382 1.54103 8.07392 137 122 118
-4.37906 0.931218 7.02951 20 17 33
1.91142 -1.88421 9.64537 107 94 54
-3.21464 -0.451433 9.09574 100 56 34
1.87937 -0.0275656 9.92545 80 54 42
1.68435 0.427507 9.94942 142 116 104
2.24353 0.895011 9.30654 198 174 164
-2.25775 1.28391 10.0632 164 114 89
-2.02072 1.32883 10.0123 177 124 88
3.16326 -2.63153 8.56033 115 90 69
-3.7249 -1.20694 8.78706 94 46 30
2.02943 0.0399957 9.85694 55 30 16
1.92927 -1.6137 8.41049 96 70 62
2.11305 -0.423556 9.56253 44 12 2
-4.3098 -0.757788 9.19141 106 83 60
-4.31308 -0.729647 9.2105 120 96 76
-4.40889 -0.302077 6.96124 110 100 97
-3.88914 1.46847 9.43202 198 148 117
-1.08978 -1.46442 9.91787 137 127 91
-3.33741 -1.27413 8.95427 104 41 26
-0.200459 1.17199 8.05374 54 22 11
-4.12256 1.31709 7.90196 122 25 22
-2.08322 -1.05813 9.86055 102 73 40
-3.61071 0.424022 8.06997 122 30 24
2.11952 -1.48481 8.07105 116 14 10
-3.3597 -0.346833 8.91713 124 76 57
-0.0704532 1.37418 8.09264 158 136 126
-3.74001 -1.29759 8.86354 78 32 20
0.146946 1.36219 8.11028 143 105 105
2.09947 -0.433572 9.61491 104 65 48
-4.2662 0.864233 7.48598 56 47 56
3.69355 -2.20569 12.7027 104 78 63
-3.80605 -1.53419 8.77382 131 86 64
-3.83771 -1.64149 8.76971 88 54 34
-3.83832 -1.64462 8.77339 90 56 36
1.81101 -0.793465 7.14058 137 82 54
-3.87028 0.260062 7.98161 111 18 4
-4.47947 2.17534 13.6173 156 109 86
-1.83076 -1.88875 9.51203 82 40 26
-1.44403 -1.69693 9.48906 109 70 58
3.05792 0.0665178 9.03937 84 43 25
2.85885 -0.308836 8.80795 50 44 49
2.76457 0.329676 9.15856 149 119 103
1.99263 -1.52896 8.29661 105 35 30
4.25978 -1.37913 11.4503 58 33 22
4.30688 -1.3386 11.4962 90 55 39
-0.975406 -0.667638 9.71005 166 143 124
2.87577 -0.083171 8.84224 41 19 14
2.94342 0.413565 9.13826 117 84 64
1.92191 -1.61345 8.40123 103 76 66
-3.17004 -0.876417 9.4102 95 52 23
-0.973031 -0.668304 9.70461 166 143 124
-4.24222 0.176541 7.0455 72 32 31
-4.28414 0.209807 6.9849 166 135 138
2.7542 1.26367 9.04975 112 110 99
-4.28468 0.885617 7.49531 28 22 36
2.23984 -1.1985 8.26576 95 60 38
-4.25475 0.174767 7.05965 100 70 70
-0.540462 2.16105 8.65379 112 82 74
2.13395 -1.20279 8.10804 124 100 74
-3.33549 -1.2727 8.96193 105 42 24
-2.73852 -0.795477 10.7769 89 52 25
2.9036 -0.360391 9.35717 28 18 15
-4.29298 -0.644264 9.19356 160 144 127
-4.49305 -0.556713 6.87943 146 138 122
-4.99978 0.588349 7.27296 163 138 120
-4.31668 -0.549906 9.15156 126 101 76
-4.42414 -0.307476 7.0505 156 140 124
1.76062 -1.7568 8.98679 107 82 59
2.39624 -1.39892 9.69428 168 146 106
3.05613 -1.00929 9.05183 102 86 74
2.41712 -0.891712 9.67777 153 135 102
1.92634 -0.658843 9.56768 103 73 60
2.54684 1.69291 10.5035 204 180 171
3.58875 1.5686 9.47348 174 146 130
-2.46937 1.27289 9.90607 108 74 64
0.127855 1.53852 8.07189 172 156 150
-4.69941 1.53009 7.42193 143 64 35
2.3813 -1.40271 9.67238 149 114 79
1.80246 -0.665288 9.32291 130 100 84
1.96009 -0.42264 9.65336 68 25 4
-2.98663 1.41672 9.51361 123 76 57
-3.15938 1.44101 9.42801 58 20 14
2.20125 -1.51129 8.14251 115 22 17
1.91844 -0.679644 9.42243 161 132 116
1.89635 0.689686 9.70591 140 77 53
1.77969 -1.62962 8.48808 75 60 52
-2.0383 -1.66409 9.67703 138 82 64
2.46786 -1.2728 9.71228 102 59 22
2.67107 -1.04852 9.5276 123 119 82
2.10277 -1.01219 9.83753 122 82 52
-2.07435 -1.03888 9.76193 105 70 34
-3.17004 -0.318153 8.96133 124 84 57
1.69491 0.849291 10.0071 88 63 43
2.53425 1.2403 9.99053 237 223 218
-0.310019 2.11493 8.55381 82 56 53
1.81135 -1.89129 8.25408 94 51 22
-1.93045 -1.33576 9.96744 122 82 54
2.50704 1.22897 9.20613 130 90 72
-0.0257292 1.44372 8.04737 96 78 73
-4.46226 0.908663 7.20364 98 94 100
2.10342 -1.4526 8.29741 50 4 2
-1.11379 -1.17597 9.7794 30 10 5
-0.902414 -0.726775 9.7047 99 68 38
-2.3192 -0.741077 10.1711 102 56 34
2.53893 1.23948 9.26618 144 106 89
-4.32773 0.926188 7.46507 68 64 76
1.90107 0.0590595 9.9503 136 111 92
2.4456 0.264186 9.3606 66 50 42
-4.23428 0.0813943 6.95506 140 96 96
-3.61945 -1.45762 8.77998 78 38 22
1.8841 -0.668786 9.34463 166 134 118
-0.333171 0.864635 11.031 144 112 90
2.89799 1.11567 9.04805 134 100 84
1.97804 1.15747 9.50018 108 86 82
3.30349 1.51316 9.23906 138 110 96
-4.55731 1.50811 7.81563 150 98 80
2.24905 -0.695133 9.63632 78 50 36
2.03092 -0.445943 9.71147 182 146 129
3.15268 -0.0840486 8.88614 58 24 17
-4.22589 -0.183974 9.3005 108 73 51
-1.82717 -1.89186 9.4986 62 21 8
-1.52381 -0.296597 9.56685 114 70 52
2.82547 0.287898 9.11139 68 47 34
2.92306 1.10141 9.03873 135 96 78
-2.93025 1.4564 9.61624 132 83 64
2.90099 -2.74321 8.51768 180 127 99
2.50579 -1.776 7.76261 142 92 69
-3.41717 -1.5944 9.17006 39 20 6
-1.48054 -1.46198 9.52032 109 64 50
-4.2063 0.286196 7.39263 154 120 102
-4.51642 2.37014 7.6986 128 18 18
-0.975645 -0.659186 9.78381 162 141 118
-4.27062 -0.149416 7.26506 136 88 70
2.72552 0.643022 9.39859 108 61 34
2.32591 0.874288 9.11445 130 82 61
3.27753 1.07464 9.09829 158 130 116
-2.43889 1.30291 10.1817 78 29 13
-3.6598 -1.40594 8.72232 86 44 30
2.0031 -0.409936 9.60143 54 16 6
2.81309 0.346448 9.12714 140 117 105
3.06605 0.532561 9.2325 132 112 94
-1.82415 1.16635 9.91248 178 124 100
-4.37922 1.83608 8.30883 140 75 33
-4.0227 2.14145 8.14836 126 18 22
-3.52047 -1.556 9.02457 142 91 70
-1.92171 -1.30626 9.86372 80 40 16
-1.77832 1.14965 9.98212 192 144 121
2.75058 1.26748 9.12252 139 131 120
-0.00981644 1.26841 8.09637 104 54 42
3.27279 -0.217266 8.85265 130 86 69
2.62089 -0.0928256 8.87434 61 15 2
2.10265 -1.45014 8.22728 50 13 8
-0.882821 -1.03641 9.73207 82 65 22
-2.52121 0.0492193 8.59083 138 92 79
-4.28567 0.0784088 7.07372 128 64 63
-4.23052 0.150603 7.07977 159 130 130
3.04764 0.418454 9.19138 158 118 96
-4.60036 1.45219 7.51869 55 1 2
2.57691 -2.61286 8.8506 144 128 91
2.52002 -1.35923 7.94628 140 117 108
-3.85609 -1.56476 8.74647 146 100 79
1.92717 -0.0794538 9.77363 90 65 40
-1.73359 -1.98013 9.48059 106 74 56
2.1688 -1.5048 8.08815 126 25 26
2.48174 -1.34784 7.95438 116 89 78
-1.82237 -1.17096 9.62461 153 98 67
3.03769 -0.222999 8.81312 49 24 20
-3.26206 -0.295751 8.81143 105 60 34
1.92073 -0.0932158 9.70302 92 67 40
-1.03855 1.42263 8.64928 156 130 120
2.79446 -2.81674 8.53276 152 144 95
-3.99212 -0.568618 9.18481 94 52 34
1.94522 -0.327496 9.61934 118 78 54
-0.436785 0.862144 8.01809 30 10 4
-0.480175 1.43457 8.0601 142 126 118
3.03517 -2.71464 8.64078 158 108 86
2.80026 -0.609045 8.86201 168 73 43
-2.67965 -0.106745 8.57003 182 124 106
-1.11541 1.35131 8.58669 171 151 142
0.195555 1.5075 8.16719 142 117 114
-4.03003 2.16716 8.20864 122 21 21
-2.01369 -1.66533 9.47236 56 20 3
-1.33253 -1.13278 9.66924 50 16 10
2.91032 1.09621 9.06636 142 98 78
0.172818 1.4217 8.11689 134 115 115
-3.96129 -1.22603 8.71176 154 110 92
-3.72952 -0.753182 9.13514 95 41 20
2.74499 0.879675 9.31166 130 83 58
2.80591 0.847313 8.93935 90 48 26
2.07366 -1.45093 8.24824 43 4 0
2.84306 -0.650912 8.642 187 104 76
-2.71563 -0.709649 10.4065 77 41 10
2.27315 0.939107 9.19374 170 132 120
0.13292 1.54172 8.0814 170 151 149
1.7606 -2.25057 8.88809 126 102 78
-0.216848 -0.385531 2.68813 124 88 72
2.68819 -0.6465 8.81336 157 105 93
0.131232 1.54019 8.08215 138 121 118
-4.56169 2.39935 7.78269 127 27 30
-4.60181 0.0316998 6.92758 180 60 61
-2.69703 1.0497 9.60945 140 92 70
-4.57436 1.40163 7.4659 76 6 6
