ply
format ascii 1.0
element vertex 1385
property float x
property float y
property float z
property uchar red
property uchar green
property uchar blue
end_header
-2.73787 -0.60048 11.4729 126 112 58
3.18686 0.640148 11.7842 103 68 50
4.89785 -2.69813 10.1381 52 58 26
4.432 -2.61666 10.4535 106 108 68
3.80449 -1.27587 11.995 76 78 39
2.97936 1.06635 10.8344 68 42 30
0.685425 2.43029 10.601 51 17 12
-2.66965 -3.11512 9.41134 93 98 54
2.91328 0.970465 10.995 37 13 6
3.10973 1.30209 9.78211 144 122 108
1.58529 1.80918 10.0826 68 34 26
1.50319 1.44858 9.96354 52 18 9
3.11948 1.27245 10.7199 124 96 90
-0.187131 2.73339 11.4069 142 120 98
2.42952 1.33369 9.99076 86 54 32
3.66197 -0.857311 12.1103 139 146 104
0.762636 2.44443 10.551 31 9 3
1.15138 3.73224 11.8676 90 42 32
3.22241 -1.44222 10.5336 62 72 52
2.43464 -0.895113 8.54297 95 98 91
-1.95183 -0.853187 11.4421 106 105 54
-2.4302 -0.717131 11.2351 49 40 7
3.43206 -0.901692 12.134 94 101 60
3.41424 -0.807357 12.1065 127 131 92
-0.0422077 3.39072 12.0113 117 80 64
-2.7515 -0.530632 11.4097 96 71 24
3.1631 1.22439 11.0569 50 24 18
0.715028 2.86688 6.92566 106 94 80
-2.38989 -2.7298 9.39697 41 42 18
0.734248 -0.951557 10.258 154 155 105
2.67815 2.03499 13.6071 47 24 16
3.22697 1.12138 11.1628 58 28 20
0.129529 -1.9414 8.19897 88 90 44
4.90432 -2.70875 10.1742 36 41 14
-0.181703 3.008 11.7214 145 128 107
0.718413 2.82981 6.9562 67 64 42
0.686477 2.50385 10.6855 22 7 4
1.09727 2.73062 7.16711 74 71 40
0.271496 -1.88401 8.08198 68 76 28
1.30742 0.206776 11.314 88 91 87
1.1845 0.279644 11.479 112 112 112
1.55032 1.02126 10.1656 71 54 42
1.44128 4.05774 11.9279 90 54 49
-0.986316 -3.84595 12.1811 120 122 74
5.00525 -2.82098 10.0528 120 124 80
4.86434 -2.69369 10.1682 44 45 12
2.95118 -1.31672 7.24685 142 141 103
2.60606 -0.983853 8.17763 80 84 78
-1.0845 -0.627871 11.5025 100 100 50
2.13208 -0.562158 9.2952 86 96 84
0.695834 -0.144629 9.64508 150 150 104
1.22968 0.190779 9.09643 112 118 84
3.16327 0.607 11.1888 58 24 8
3.02196 0.904272 11.0873 46 18 6
0.626885 1.54092 9.91869 108 58 28
2.43397 1.30687 10.0112 103 82 64
0.585279 1.67445 10.034 59 22 10
0.949063 1.64021 9.85925 89 37 16
0.665241 1.7029 9.83976 150 120 109
3.03989 2.06291 12.366 54 35 28
3.01016 2.21785 12.2928 30 12 10
3.72497 2.23366 8.94936 133 105 68
1.54835 3.09174 10.9862 120 87 79
1.08349 2.78536 7.05818 102 90 72
2.13311 3.18763 11.3873 119 92 88
-0.644055 -3.4657 11.9536 88 96 56
-0.589555 -3.11663 11.6686 90 96 64
-1.28912 -2.1204 10.1157 89 90 46
3.01695 -1.32497 7.15712 152 151 108
-1.44704 -0.752113 11.5486 116 115 62
0.763039 -0.136213 9.53221 150 150 103
0.761364 -0.0883434 9.46866 40 44 13
0.755534 -0.0295593 9.41851 95 97 65
0.846729 1.37633 9.565 94 70 52
1.56095 1.41048 10.0463 72 43 33
0.540242 1.66937 9.94812 103 56 34
0.998043 1.62819 9.78117 134 83 56
0.886755 1.63867 7.82383 116 108 81
3.08251 1.31469 10.9371 48 26 20
3.06754 1.61108 13.0933 118 106 88
-0.237803 2.3575 11.2142 144 123 100
2.9774 2.02286 12.9095 54 30 16
3.02904 2.07354 12.2864 106 94 88
2.98199 2.14817 12.4307 114 104 98
0.713836 3.30172 11.354 134 92 85
2.47514 3.19525 12.1379 78 48 46
0.743141 3.79175 11.8139 116 89 85
5.00807 -2.82058 10.0439 148 152 101
-1.5759 -2.3102 10.0778 99 98 52
-0.833656 -1.76712 10.3422 116 118 72
-0.293979 -1.298 10.8106 112 114 67
0.758079 -0.0873852 9.46133 36 40 12
0.946978 1.63699 9.85429 129 78 52
-0.0739288 2.95818 11.6184 132 104 86
2.16952 2.58245 10.9678 52 18 14
0.703875 2.86553 6.94002 124 112 98
2.58336 3.56697 12.7491 72 36 34
4.95882 -2.81826 10.1235 91 97 54
-1.95502 -2.35931 9.45287 50 54 26
-0.604327 -3.12668 11.6837 88 94 62
-1.32788 -2.13249 10.1495 97 98 52
-0.904108 -1.79179 10.4413 90 93 50
0.0559184 -0.946274 10.8098 76 80 48
3.85451 -1.16441 11.936 90 86 50
0.818439 -0.0759558 9.34522 36 40 14
0.719253 -0.0288744 9.4707 93 94 63
1.70281 1.17722 9.75411 52 34 28
2.28993 1.32919 10.203 48 18 3
0.889878 1.87633 7.59927 136 128 106
2.2262 2.53869 10.9346 122 96 90
2.26279 2.55836 10.977 42 20 18
1.27844 4.14344 11.8392 96 49 29
0.0914826 -1.96537 8.24005 80 79 32
-1.58926 -2.31348 10.0872 98 97 52
-1.36471 -2.14006 10.1851 75 78 36
-0.674979 -1.60574 10.5481 86 87 48
-0.871031 0.234075 10.4108 126 114 68
3.37453 0.292872 12.0649 128 103 80
2.53631 3.70321 13.1121 84 56 48
-0.0126173 -1.17503 10.5972 154 152 105
1.33579 -0.367401 9.84045 115 110 70
1.17773 0.129537 9.42113 47 56 29
3.16531 1.10914 11.5705 90 55 44
0.570268 2.41911 10.6572 100 64 55
-0.168014 3.44501 12.2036 133 112 95
2.15932 2.84909 11.1877 106 87 83
2.98313 -0.0697467 12.0955 72 54 27
3.24728 0.825021 10.9797 119 80 52
-0.134077 2.99345 11.6864 144 124 102
-0.136421 3.20824 11.8237 108 72 50
-0.0691022 3.66318 12.1759 130 106 90
0.630278 3.81014 11.9718 82 46 40
1.48478 3.54303 11.3563 90 40 27
1.28722 3.69503 11.5863 46 12 3
2.04767 3.65154 11.7367 94 65 62
-1.24544 -0.189134 11.3123 120 106 64
3.36136 -0.84755 12.1335 148 162 115
0.704537 -0.0901602 9.46653 32 36 14
0.694767 0.119903 9.21368 44 28 9
2.9826 -0.0441132 11.9178 74 61 36
1.1504 1.22224 9.86199 10 6 5
2.3978 1.31585 10.0749 72 47 30
-1.37354 -2.1535 10.2238 86 88 46
3.02187 -1.32665 7.15168 156 155 119
0.162983 -1.93576 11.1608 86 100 58
0.352762 -1.68595 11.1023 108 114 79
1.31712 -1.71838 11.9358 61 69 36
1.30467 -1.67255 11.9158 148 156 126
-0.293108 -1.29766 10.8069 94 98 54
0.671375 -1.13122 10.9308 114 119 80
-2.80421 -0.551045 11.3851 86 61 14
1.97767 -0.942115 11.1673 151 155 120
2.49278 -0.881418 10.7117 86 89 76
-1.41994 -0.45427 11.3425 146 137 102
1.95242 -0.418358 10.0225 143 150 122
2.00819 -0.379499 9.85573 116 122 98
0.231346 -0.299477 12.1516 80 76 45
2.93061 -0.387384 11.9543 122 136 96
0.0082813 0.687364 9.29595 118 113 78
2.83177 0.0295934 12.8684 129 112 92
1.23504 0.905653 8.38747 98 108 80
1.39922 1.13651 9.72414 22 6 2
1.63959 1.09256 10.0013 42 27 18
3.43098 0.796219 11.3406 125 101 88
1.67816 1.16758 9.79726 52 34 28
3.32996 0.918227 11.9145 58 30 18
1.60138 1.40588 9.97387 86 60 50
3.13078 1.31861 12.7245 134 123 108
2.51545 1.56437 9.99169 79 50 46
3.09277 1.56167 13.0235 88 76 60
0.570425 2.17626 10.4425 106 70 63
0.259421 2.35348 10.7367 122 78 64
2.93774 1.96876 13.1746 126 110 98
1.01604 2.09414 7.40881 94 98 72
3.00734 2.14154 12.2064 47 28 22
0.135201 2.86369 11.1981 126 98 80
0.708038 2.86676 10.9202 130 103 92
2.38858 3.61701 12.3067 56 25 22
-1.9155 -4.5742 12.8875 97 102 53
-1.5525 -2.2996 10.051 94 96 49
1.84557 -1.86018 10.7446 126 134 92
1.92723 -0.97428 11.2998 142 148 112
2.10033 -0.587269 9.35627 86 93 85
2.00673 -0.425354 9.5409 78 88 77
1.76456 -0.34548 9.44007 70 73 58
1.98807 -0.440688 9.94012 95 104 81
0.106284 0.347275 10.0424 149 147 95
0.147762 0.528143 9.09383 76 79 56
2.94464 0.124166 12.5235 46 22 4
1.59465 1.08896 10.0971 79 62 54
1.59754 1.13344 9.8385 50 25 14
3.29012 1.08888 11.1999 64 30 20
3.33427 1.13873 11.3347 108 78 68
2.38192 1.59845 10.3707 46 17 12
3.10774 1.64039 12.7377 78 56 36
1.4068 2.47373 10.372 90 47 35
0.0642541 2.89109 11.3323 144 118 98
3.80581 2.18994 9.11554 76 44 24
1.0448 2.79793 7.10283 130 118 102
-2.57391 -0.752695 11.4408 54 47 10
-2.71211 -0.543646 11.2779 86 63 14
0.728813 -0.454691 10.6946 56 57 16
2.91237 -0.449542 12.1153 114 128 84
0.206633 0.61291 9.43107 69 66 48
0.0853171 0.697584 9.18382 114 106 70
1.12103 0.638983 8.83326 92 102 68
1.25364 1.17691 8.07766 106 110 78
2.66672 0.867161 14.6153 96 71 60
1.77089 1.16148 9.58961 59 41 33
3.21808 1.13851 11.1773 58 27 18
3.17164 1.1592 12.8314 84 70 54
3.10082 1.30833 10.9 64 42 38
0.589562 1.92178 10.2834 57 20 12
1.06181 1.79453 7.90451 130 132 111
-0.20348 2.34614 11.1495 148 128 104
2.87116 2.61606 11.2319 81 50 43
3.79219 2.18839 9.14765 61 30 14
-1.17159 -1.97874 10.3545 79 82 46
1.94261 -0.974716 11.2587 141 147 110
2.03122 -0.3077 13.1807 122 104 91
0.047838 0.331927 10.1238 148 147 92
3.05103 0.0670397 12.0265 90 74 54
1.17347 1.22791 8.17333 101 104 78
1.10105 1.46111 8.04227 84 86 59
0.609841 1.69966 9.92139 122 96 86
3.18646 1.25036 10.6325 156 130 124
0.714923 1.90716 10.0512 38 9 2
3.08214 1.6687 12.8296 52 28 11
1.05101 1.87191 7.61762 95 94 70
2.43264 1.7299 10.2778 44 20 16
2.97911 1.93877 12.9966 109 94 80
-0.245348 2.60029 11.413 140 115 92
3.18191 1.989 11.9314 48 26 16
3.00722 2.24079 13.0046 92 72 48
2.30408 2.23609 10.636 120 100 98
3.69464 2.07923 9.22842 94 76 38
1.05977 2.77213 7.16124 78 72 42
3.82578 2.57754 9.26458 80 45 26
0.203405 -2.42231 11.4912 95 107 58
-0.556504 -1.47338 10.7683 96 100 58
0.293172 0.508627 9.41331 64 66 46
3.66695 -0.0864505 11.3929 134 100 84
2.88731 1.08304 10.7225 120 88 72
3.14639 1.17677 12.8529 86 68 49
1.6757 1.42885 9.75151 81 52 42
0.596413 1.69706 10.0796 75 28 16
0.551654 1.75652 10.1803 40 15 8
3.14954 1.31752 10.5334 84 51 46
0.52704 1.91168 10.2439 96 56 46
3.26636 1.44483 9.58321 78 56 42
1.12989 1.80654 7.76806 86 85 62
0.960286 1.88912 7.75363 87 87 63
2.34119 1.7446 10.3591 70 36 32
0.0597044 2.27421 10.6643 147 128 103
2.9287 1.95937 13.1517 94 72 58
-0.254368 2.74311 11.4988 126 102 82
3.07918 2.16006 11.8414 40 23 17
2.22436 2.28892 10.8217 77 54 52
-0.0323392 2.91852 11.4771 148 125 105
2.98012 2.44913 12.7149 92 70 56
0.685535 2.9322 11.0055 98 70 65
0.231323 3.26943 11.4312 138 112 91
2.13168 2.92217 11.4629 40 14 11
-1.27126 -2.10502 10.0446 90 95 54
0.182275 -2.43526 11.5255 95 107 58
-0.489326 -1.43921 10.644 72 78 41
2.59862 -1.20085 8.73541 110 119 82
0.0756759 -1.0792 10.5463 96 101 62
-0.376518 0.834864 10.094 148 138 91
1.08073 1.21035 8.32684 84 88 61
3.21417 0.810861 11.0474 113 70 46
1.45302 1.2627 9.82572 26 14 10
3.18574 1.46917 9.82477 62 46 28
3.00313 1.54704 10.948 84 59 54
2.94383 2.46461 12.8035 75 44 28
2.17754 2.60322 11.2794 42 24 20
0.0233113 3.12977 11.4893 130 105 82
2.10896 3.2155 11.381 76 39 34
-1.04256 -2.01375 9.7399 99 102 60
-0.374562 -1.40938 10.449 91 98 55
0.0126597 -1.09733 10.6309 82 88 51
-0.855964 0.272246 10.4217 150 142 87
3.34567 0.678147 10.9621 152 107 90
2.97155 0.796067 11.4656 110 69 47
1.59483 1.15202 10.0256 46 32 26
0.958639 1.97979 7.90492 154 144 121
2.95941 1.9516 13.0857 114 98 86
2.54304 3.13614 11.9155 101 67 67
2.06388 -1.00307 10.943 112 118 80
2.3321 -0.637883 13.8991 140 156 114
0.0372621 0.207055 10.1374 148 143 89
3.15762 0.111344 11.4737 80 60 46
1.6499 1.16488 9.91775 16 4 1
2.93901 1.06468 10.9001 74 49 35
1.08521 1.42088 8.0467 66 72 42
1.07468 1.83209 7.80017 61 61 35
3.16901 1.85152 11.4818 46 24 20
1.99057 3.64359 11.9114 112 83 80
0.626005 4.04056 11.9367 102 72 64
4.75123 -2.67499 10.2157 158 160 109
0.62303 -1.17106 11.0199 112 118 81
2.92044 -1.23395 10.4488 68 75 58
3.37466 -0.785597 12.0722 114 121 82
3.64479 -0.717163 11.9003 94 73 40
2.76649 0.0284203 12.6789 78 62 42
3.12341 1.28941 9.86086 94 64 50
4.07409 -2.13637 10.1783 83 88 64
3.5885 -0.740858 12.0278 46 40 12
1.53672 1.03319 10.288 99 79 68
0.633919 1.91371 10.182 40 10 2
1.91741 -5.11834 12.7457 86 89 36
4.82694 -2.69225 10.143 159 161 112
4.78597 -2.67371 10.1459 148 150 100
4.10708 -2.0987 10.0259 82 85 62
3.8645 -2.03627 10.1711 73 80 52
-2.12612 -0.881455 11.376 124 122 68
3.40993 -0.81987 12.0965 151 160 119
2.25633 -0.276384 13.3142 136 126 94
3.55903 0.000868081 11.7436 131 92 76
-0.791478 -3.61105 12.1033 142 148 100
-2.0275 -2.62005 9.89897 96 94 50
4.9995 -2.85205 10.1111 148 152 100
4.9529 -2.64794 10.0402 46 56 32
4.68842 -2.686 10.2914 98 100 54
-0.406047 -2.84168 11.6112 96 103 70
3.84063 -2.08246 10.3372 76 83 55
3.02683 -0.0768388 12.6308 118 98 72
2.50129 0.871526 10.5545 51 49 36
1.16249 1.20469 10.0649 32 13 8
2.86834 1.50253 9.53403 76 64 46
2.06857 3.6092 11.7172 122 98 93
2.17186 -0.506902 13.5299 142 157 114
2.45798 -0.490703 13.0392 58 34 18
1.11078 0.334945 11.1814 125 121 110
-0.69058 1.30105 10.4482 98 53 30
0.490408 2.22319 10.4686 24 8 3
3.44406 -0.824521 12.1637 36 36 9
-1.06164 -0.0906189 10.8771 94 76 48
4.89411 -2.7636 10.3085 40 46 18
2.10824 -0.291995 12.6586 88 72 52
2.17443 -0.302341 13.4629 74 56 32
-7.54835 1.20248 15.6017 144 136 102
3.41918 -1.71914 10.3834 68 76 52
2.85012 -1.22133 10.5521 82 88 66
1.97412 -0.440955 9.64585 74 84 70
3.42089 -0.91284 12.1573 102 108 66
1.15763 -0.429748 13.7694 160 132 92
1.86491 -0.273608 13.4012 80 56 36
0.774867 0.326758 9.05587 109 108 58
1.61952 1.09036 10.0353 31 18 12
2.66481 0.950655 10.353 66 64 56
3.06723 0.904945 11.1011 94 48 21
3.14766 1.05824 12.7873 70 58 44
3.17616 1.17174 12.8098 102 92 78
3.14813 1.29928 10.7584 74 54 50
3.0589 1.51136 13.0746 112 102 85
2.96189 1.55698 11.1182 126 103 102
2.94391 1.81123 11.1528 120 100 97
2.93781 2.03722 13.0987 51 28 16
3.00857 2.07371 12.3415 112 96 89
2.83991 2.06185 11.3597 120 98 93
2.89416 2.27202 11.7372 106 76 73
2.95347 2.52728 12.5099 105 84 80
2.19443 2.86327 11.1265 114 96 92
2.80513 2.99891 12.8446 98 74 70
2.59544 3.55293 12.5788 112 88 84
2.61435 3.56006 12.659 70 40 34
2.45785 3.56652 12.2388 124 99 100
2.06957 3.59152 11.6995 122 99 96
2.35591 3.83912 12.5018 68 50 46
1.40218 4.05484 11.6393 102 52 35
-0.812167 -3.66091 12.0497 98 104 66
3.02717 -1.389 10.5173 76 81 60
1.2105 -1.36576 12.0453 134 141 96
-2.78409 -0.540456 11.4407 94 70 28
3.43271 -0.912456 12.1031 140 151 106
-1.31239 -0.234862 11.4378 93 79 42
3.35876 -0.8197 12.2501 134 139 105
3.59824 -0.829863 12.1957 124 126 90
3.06923 -0.598245 12.2184 132 143 106
2.39359 -0.544152 13.066 131 130 98
1.64396 -0.33897 13.5061 52 22 6
1.24234 1.26537 9.90526 27 8 2
2.85544 0.975002 10.8849 74 47 34
0.866471 1.42714 8.0535 151 143 118
2.98974 1.0754 10.8275 60 38 25
3.3015 1.04954 11.0719 69 32 16
3.17888 1.07186 12.7281 68 54 42
3.0044 1.34316 10.0044 138 119 104
3.05595 1.55706 13.1091 58 47 31
3.06907 1.60547 13.0957 93 82 68
0.895706 1.87677 7.59694 132 124 102
2.98676 1.80386 11.1009 76 55 50
2.82276 1.8771 11.28 34 11 10
2.9714 2.15625 12.433 76 62 57
2.41517 3.58734 12.3065 110 81 80
2.38385 3.81217 12.4349 79 61 58
2.21206 3.91166 12.5828 64 36 32
-1.82165 -2.15586 9.75157 60 60 36
-2.42939 -0.713002 11.2557 58 47 9
-0.980948 -0.0063037 10.5788 82 56 34
1.9322 -0.35257 13.4418 92 74 58
-0.953444 0.431274 10.3073 144 104 74
3.29643 0.613602 11.3051 139 100 88
2.55895 0.980205 10.542 54 54 42
3.44503 0.824707 11.2982 122 98 85
2.87729 0.96784 10.8501 70 46 32
3.40625 0.994473 11.4229 93 72 66
1.61643 1.43945 9.92266 104 75 61
2.94851 1.30114 11.0821 116 86 80
1.54162 1.66197 9.74134 158 112 90
1.54943 2.02752 10.268 100 70 66
2.91643 1.81146 11.2078 100 75 72
3.05812 1.82964 12.2408 102 76 66
2.91742 1.8273 11.319 35 15 9
3.00851 1.9188 12.9255 114 96 84
0.669079 2.8934 11.0033 116 78 67
0.674535 2.95375 11.045 106 78 68
2.73976 3.03041 13.0191 95 70 64
1.12383 2.73968 7.09503 86 76 50
2.67563 3.46476 13.0829 94 65 58
1.50848 3.60721 11.43 116 87 82
2.62586 3.54076 12.6053 84 52 47
2.04704 3.61137 11.7535 113 86 82
3.02815 -1.39227 10.5161 72 76 54
-1.34736 -0.43844 11.1949 150 142 96
3.65684 -0.832035 12.1267 146 154 114
-1.04082 0.376207 10.3065 150 124 76
0.748457 0.347311 9.04923 144 141 86
0.514473 1.16617 10.2 22 10 4
1.14296 1.27894 10.0232 24 6 2
0.899639 1.3735 8.04169 120 114 86
2.94394 0.973268 10.9381 35 12 4
1.73939 1.23663 9.70448 18 6 0
1.18186 1.40731 7.96233 96 99 74
1.16929 1.45287 7.94346 94 96 68
3.31009 1.07345 11.0388 60 28 15
0.241667 1.66974 10.1277 110 76 54
1.76156 1.41501 9.74098 74 48 36
0.264435 1.73738 10.3663 107 60 36
3.22231 1.18774 11.1869 100 71 64
3.1466 1.22666 11.091 34 14 6
2.54489 1.38656 9.81989 136 97 80
2.96049 1.56821 11.1058 113 92 92
1.09939 1.86481 7.5505 100 102 81
2.35135 1.75431 10.3897 108 84 76
3.08604 1.87128 12.0433 33 15 10
0.692997 2.39569 10.4969 108 72 61
2.91009 2.55132 12.5791 80 57 53
1.19447 2.72662 6.99624 104 92 70
2.65259 3.48195 13.1127 94 68 60
1.47469 3.99094 11.7353 117 80 68
1.99884 4.01627 12.2212 72 35 30
-2.61339 -0.721436 11.4372 62 50 14
3.17255 1.00496 12.6932 104 89 76
1.15483 1.44889 7.95119 82 83 54
3.32892 1.07139 10.9737 78 47 36
1.12665 1.49578 10.0333 155 110 80
3.20502 1.19025 11.2612 104 72 65
3.12003 1.32012 10.6556 105 73 66
2.9309 1.57369 11.1452 64 36 33
3.08529 1.66469 12.7649 54 33 20
2.38352 1.74916 10.3223 101 76 68
0.666367 2.1578 10.1988 42 11 2
1.55056 2.0415 10.2688 89 61 56
2.99853 2.01297 12.8362 43 18 10
0.747184 2.42509 10.5445 41 14 6
3.03458 2.09836 12.2469 62 48 42
2.90363 2.553 12.5771 60 36 33
2.81884 2.73183 13.406 77 50 34
0.698422 3.34948 11.3954 102 58 50
1.45939 3.99518 11.7248 110 68 55
-2.17207 -2.45392 9.61758 56 56 28
1.95079 -0.365159 13.4156 94 74 58
3.35851 0.54963 12.1975 84 62 44
1.68179 1.22588 9.7624 44 25 18
1.21277 1.47109 9.75786 172 125 96
1.03453 1.88429 7.61215 104 104 83
0.738397 2.82704 6.92713 106 99 78
1.24218 2.70991 6.94796 99 88 64
1.48126 4.07309 11.8834 78 35 26
-0.971825 -0.00405498 10.6225 96 76 44
1.48418 -0.3991 12.1211 92 90 63
1.03551 0.250904 10.7057 30 28 14
1.62637 1.23493 9.85692 30 14 7
2.89223 0.982355 10.8724 83 56 42
3.04173 1.6874 12.7844 52 29 20
0.685235 2.49291 10.674 32 13 10
1.23439 2.63172 7.13668 62 60 31
3.74842 -1.26245 12.0784 86 84 44
-1.66571 -0.461376 11.4845 148 141 86
-1.0847 -0.0132684 10.7618 89 66 38
0.460065 1.26854 9.93643 35 28 15
2.99733 1.64875 12.1756 46 26 20
2.85665 2.04971 13.1346 44 20 11
2.40221 3.6489 12.3081 78 51 50
-2.64951 -3.10599 9.38904 78 82 38
-0.587208 -3.10927 11.6856 92 96 63
-1.75651 -2.29294 9.74812 79 82 55
-4.44074 1.00486 15.3308 114 99 72
3.32056 1.11303 11.1245 99 62 52
2.92577 1.65192 11.1018 28 7 4
2.90253 2.57968 12.6068 105 84 78
0.701287 3.84043 11.8977 88 50 43
2.40863 3.5922 12.2581 61 28 26
2.23657 3.90888 12.3697 72 47 44
2.05127 3.99422 11.7954 70 32 20
2.82897 -1.23139 10.5923 74 79 59
0.857775 -0.36313 9.99526 57 60 25
-1.04419 -0.0336156 10.7607 108 92 54
1.16479 -0.430788 13.7297 167 143 101
-1.47593 0.445336 10.8113 139 116 74
-3.36323 1.08368 14.1842 134 118 94
3.45678 0.458013 11.1779 106 76 58
1.63165 1.08198 10.0216 50 37 27
3.31174 1.14038 11.3975 113 82 72
3.14352 1.21769 11.1266 50 26 16
2.89578 1.6557 11.1534 23 4 0
3.03201 1.83557 12.2892 97 73 62
3.0409 1.88252 12.1526 35 18 10
3.05794 1.96482 12.7485 50 30 20
1.60449 2.27167 10.3569 116 88 82
2.47633 3.58667 12.3093 76 46 46
1.2208 4.16811 11.9351 102 53 36
-0.856819 -3.6725 12.1138 88 92 58
0.514503 1.15873 10.165 27 14 4
0.878631 1.41918 8.02934 160 149 126
3.17828 1.18956 11.2706 98 68 60
2.57378 1.38099 9.83044 132 96 78
2.98236 1.55051 11.0736 107 82 79
3.00787 2.08266 12.3394 95 80 75
1.03186 2.81259 7.0758 138 125 110
2.55374 3.65285 12.6262 74 52 52
1.80965 4.11074 11.8739 132 92 78
-1.83783 -2.22449 9.7621 81 78 52
1.31361 -1.99184 12.0004 124 128 87
-2.41751 -0.703865 11.2365 54 43 6
0.786814 3.77566 11.7214 118 82 74
-2.63454 -3.10585 9.37266 118 120 74
3.16405 0.762844 12.7683 128 117 105
2.79186 1.03765 10.9179 28 12 6
1.69248 1.41587 9.94411 45 20 14
1.12911 1.86275 7.5073 98 97 77
2.68115 3.46137 13.0366 85 56 50
3.74835 -1.27912 12.1167 78 75 36
0.521501 0.726273 8.9015 159 146 120
3.33425 0.289186 12.2388 118 94 66
3.17328 0.807944 11.1683 114 73 50
3.21762 1.10235 11.1885 62 32 23
2.75388 2.76545 13.545 79 49 33
1.16344 2.72683 7.04009 96 86 63
3.3699 0.566985 11.4252 132 106 92
3.06481 0.984817 10.6055 102 84 72
0.676816 2.84805 6.98152 132 124 105
2.39545 3.67734 12.3165 88 60 60
1.97585 4.03491 11.8864 88 51 40
3.63964 -0.866357 12.2173 140 156 114
0.829615 0.224453 10.9771 30 28 12
-1.97379 -2.54577 9.72521 87 88 66
-1.56335 -2.30086 10.0748 92 96 48
-1.35308 -2.14071 10.2031 98 96 50
3.60493 -1.89159 10.359 81 84 60
2.54089 -0.948309 8.3179 88 90 84
2.47058 -0.894382 8.71465 82 90 82
0.0186797 -0.8028 10.5944 73 77 48
3.81619 -1.26592 11.9433 70 69 30
2.0809 -0.576594 9.19308 84 90 76
3.85012 -1.1998 12.0297 91 98 57
3.54205 -1.06559 12.0929 132 142 93
0.723261 -0.297148 9.92589 99 102 64
3.31961 -0.802591 12.2636 94 100 58
0.979393 -0.0329464 9.9986 118 120 86
0.166292 0.531698 9.07937 79 74 53
-0.0572884 1.71024 10.5236 66 32 12
3.10788 1.311 12.798 132 118 108
2.98842 1.59966 11.1447 27 8 4
1.54028 4.13066 11.8085 152 116 104
4.87826 -2.70856 10.1781 52 52 22
-1.10509 -0.628044 11.5285 122 120 68
-1.13685 -0.223416 10.9693 50 29 9
0.630752 -0.222925 9.80935 60 59 22
3.31832 0.631976 11.2217 112 70 54
0.873201 1.38084 8.06827 108 102 72
-0.181807 1.75853 10.6626 130 103 84
3.34781 1.18373 11.3893 114 86 75
3.10607 1.59893 12.015 30 12 7
2.28596 1.81335 10.4322 28 7 2
2.98252 1.80068 10.9978 72 48 44
2.85198 2.28756 11.8189 102 73 70
1.53767 2.57909 10.5617 56 20 8
1.75381 2.98463 10.9309 106 56 45
2.84306 2.97934 12.7627 88 62 58
0.744507 3.79494 11.7978 122 90 84
-0.529159 -1.20512 10.4766 67 70 45
-0.198485 -1.15667 10.6798 86 86 56
-0.14665 -0.938421 10.5042 76 77 50
3.85836 -1.16767 11.981 88 88 50
0.786743 -0.232363 9.64074 112 110 70
3.22757 0.757758 11.148 112 68 44
0.794662 1.38467 9.73084 66 50 40
2.77928 1.02365 11.0714 50 28 17
1.59002 1.59077 9.87663 74 34 16
2.83258 1.88104 11.2564 31 7 6
-1.59297 -2.29706 9.88491 45 50 12
3.86057 -1.16021 11.9461 88 85 48
3.32346 0.635659 11.1986 132 88 74
1.62269 0.981922 10.077 59 48 38
0.865695 1.64361 7.83958 133 124 102
2.42376 1.77881 10.3869 21 8 4
3.06201 1.75859 12.7069 49 26 15
2.21936 2.55228 10.9492 124 98 92
-1.64941 -2.30888 9.93017 46 50 19
-1.7856 -2.12373 9.74947 49 50 28
-1.32303 -2.11331 10.1222 52 58 24
-0.483669 -1.56599 10.2572 111 112 69
0.106816 -0.685708 10.7724 88 86 60
3.30347 0.0391793 11.2942 67 47 26
0.231606 1.76564 10.5179 96 61 46
3.00395 1.33437 11.1192 28 10 8
2.45145 1.76208 10.3523 20 10 5
2.32534 2.04436 10.6595 27 11 8
2.23595 2.30441 10.6511 44 16 13
2.19959 2.82574 11.0879 104 82 80
1.36192 3.67172 11.5021 46 13 4
4.84819 -2.76306 10.3174 54 55 24
0.597309 -0.263374 9.9017 146 144 101
3.42308 -0.797333 11.9929 147 158 110
1.99938 -0.185073 13.0013 32 14 6
1.15649 1.25433 9.92723 17 9 6
2.23148 1.82068 10.4281 26 7 2
-0.190742 2.53348 11.2224 136 110 88
0.664492 2.90467 10.9972 80 48 40
0.733186 4.04814 11.8213 101 72 64
-0.316993 -0.415332 10.9453 134 132 86
3.37185 0.0563544 11.1117 56 35 17
1.14548 0.606438 11.2507 74 73 61
-0.129742 2.51981 11.1447 136 110 88
1.19783 2.35994 10.4559 29 6 2
1.34175 3.671 11.4667 46 11 4
0.2596 -1.90322 8.09389 73 74 26
-1.28678 -0.226638 11.3763 104 88 52
1.34802 0.595332 10.995 80 80 70
2.87329 0.964866 10.891 76 48 35
1.02017 1.62484 9.73781 134 84 56
-0.044388 3.44316 11.972 140 116 96
0.666017 2.81133 7.00289 110 103 86
-0.493839 -3.24422 11.9541 110 116 70
-0.301907 -2.77477 11.4293 96 106 71
3.09567 -1.30971 7.03609 108 104 66
2.89523 -1.28871 7.32845 142 139 100
2.79513 -1.26697 7.46177 138 136 100
2.75051 -1.20715 7.50256 143 142 109
1.29115 -1.72791 11.9653 98 103 60
-1.95747 -0.853065 11.4439 101 100 47
2.32831 -0.755319 9.03902 84 94 78
0.300856 -0.680031 10.7473 70 74 42
1.74784 -0.351851 9.50314 79 86 69
-1.0654 -0.209782 10.8969 42 24 8
-1.23727 -0.226483 11.3382 114 100 58
2.66718 -0.534684 12.5463 97 102 69
3.72525 -0.0852045 11.2184 98 66 51
3.31831 0.598239 11.5956 60 32 14
3.30056 0.627584 11.2679 112 69 54
1.59181 1.02525 9.98751 44 28 20
3.33269 0.982199 11.6381 120 99 90
2.85914 1.1859 10.1686 124 110 96
3.35038 1.14604 11.2964 86 56 46
0.728479 1.66702 9.83618 66 32 18
0.5868 1.93746 10.2003 113 79 72
2.39451 1.80117 10.2296 31 7 4
2.82764 1.88256 11.3061 26 6 4
3.02664 1.9408 12.8549 97 82 71
1.6329 2.25209 10.2962 112 84 77
2.95857 2.39259 12.954 100 76 58
2.90782 2.3309 11.9747 84 52 47
1.53362 2.59039 10.5866 52 17 8
0.151085 3.34528 11.7193 128 96 78
2.22814 3.14781 11.206 122 94 92
-2.03044 -4.66216 13.0675 90 94 48
4.91763 -2.69165 10.2375 44 52 24
-0.397779 -2.39228 11.393 100 103 56
2.72994 -1.21842 7.52919 136 137 100
2.52887 -0.95491 8.32308 88 90 84
-1.97492 -0.857613 11.4708 116 116 61
0.167263 -0.914362 10.6765 88 89 56
0.741532 -0.89972 10.3818 154 151 107
2.09897 -0.574556 9.14945 75 80 68
3.31914 0.815274 11.6747 110 86 72
-0.185626 2.08838 10.8983 156 136 114
2.76183 2.38246 11.6319 43 24 12
0.710663 2.86427 10.9217 103 66 54
0.733021 2.89728 11.0165 54 20 12
0.684128 2.94307 11.046 120 96 89
2.91101 2.57485 12.5814 90 70 68
2.94029 -1.29341 7.24347 115 114 67
2.94473 -1.26105 7.25321 153 150 111
2.68775 -1.3021 7.56166 142 148 100
2.75129 -1.21394 7.49103 130 132 95
1.34366 -1.53006 11.8466 120 126 78
1.24607 -1.35726 11.9903 120 127 84
0.744317 -0.907126 10.3485 155 152 106
0.746515 -0.48229 10.682 54 58 18
2.98996 0.0335438 12.0212 58 40 22
1.66745 1.19237 9.78016 62 38 31
1.1218 1.6856 7.74722 98 96 74
2.42919 1.58212 10.3008 34 8 2
-0.013345 2.33432 10.8977 142 117 94
2.79844 1.89645 11.1848 38 18 14
-0.189901 2.64458 11.3745 148 124 101
2.77705 2.36985 11.594 42 22 12
2.27276 2.53531 10.8525 126 103 97
1.57266 3.22507 11.1295 52 13 3
-0.887754 -3.68291 12.1531 78 86 52
-0.404307 -2.83872 11.59 92 102 67
3.04091 -1.28795 7.11029 153 152 106
2.86007 -1.27329 7.35777 153 154 106
2.74642 -1.28706 7.49214 152 154 104
-0.825709 -1.7664 10.3231 108 108 64
2.78193 -1.20347 7.44185 135 137 100
-0.722986 -1.61863 10.6033 90 90 50
0.996738 -0.425151 10.2596 48 56 16
1.52516 0.220564 11.0013 92 96 94
3.33082 1.18432 11.3827 116 87 76
3.13917 1.30501 12.7345 131 121 108
3.04314 1.39546 12.8363 60 37 23
-0.12436 2.62325 11.2591 150 130 108
0.887933 2.45216 10.3764 22 4 2
2.91283 2.24797 13.3157 96 67 45
2.26488 2.73081 11.0322 55 27 23
2.92868 2.9141 12.4686 76 48 42
1.14773 2.72134 7.10601 85 79 48
1.11208 2.76954 7.04417 115 102 84
2.95394 -1.28414 7.20485 134 135 86
-0.00728722 -0.959256 10.8979 85 86 54
1.95804 -0.343694 13.4012 122 108 92
0.46896 0.726436 8.96922 154 142 104
1.55631 1.02798 10.1977 90 73 62
0.598379 1.91668 10.1611 118 82 74
2.98894 1.74013 12.9134 60 36 26
3.00302 2.12342 12.509 33 17 12
0.956461 2.48277 10.5195 29 6 1
3.0022 2.21893 13.035 97 66 43
2.27313 2.27031 10.6822 68 40 39
0.0974 3.3623 11.779 142 115 97
2.02588 3.2975 11.6442 106 85 82
2.43679 3.72834 12.8166 80 55 54
3.71662 -0.0841443 11.1862 144 109 94
3.38273 0.847039 11.4034 133 108 100
3.18319 1.14067 11.5431 123 88 74
3.02267 1.41133 12.9326 51 28 14
2.99568 1.5489 11.0051 89 64 61
2.38077 1.73142 10.2989 82 49 44
2.87544 1.66645 11.102 24 5 2
2.92514 1.803 11.1351 76 49 47
3.14612 1.99692 12.2409 34 16 10
2.31474 2.76325 10.8331 104 83 80
1.97683 3.29995 11.706 82 50 48
1.29706 1.17754 9.82697 47 30 24
3.33787 0.822454 11.5759 146 122 110
0.568958 1.55593 9.61272 74 34 18
2.95527 1.62814 10.8637 50 24 21
0.616508 2.18545 10.2361 42 16 10
0.348468 3.28069 11.3485 141 119 100
2.19969 3.17671 11.2045 72 36 33
1.41363 4.15726 11.7595 107 62 47
-2.54438 -0.751147 11.3821 103 96 50
1.13035 0.308587 11.1246 118 114 106
1.29313 1.20601 9.8608 74 48 40
1.8413 1.58001 7.89034 111 88 66
3.07409 2.34274 12.5837 86 56 38
-0.997674 -3.85219 12.1873 112 114 74
5.12836 -2.83485 10.0058 76 85 52
4.82449 -2.67454 10.1185 152 154 113
4.13581 -2.46714 10.4671 98 102 61
3.02991 -1.30594 7.1244 154 154 116
4.08114 -2.12841 10.1775 84 88 61
2.58356 -1.02515 8.03018 91 90 83
3.15577 -1.35783 10.512 74 79 62
2.70229 -1.06089 10.5961 74 80 58
3.57542 -0.851095 12.3503 146 144 107
1.53179 0.0209922 8.29539 84 86 51
3.07694 -0.569728 12.0646 116 128 86
1.04389 -0.477387 13.6122 98 74 36
1.04493 -0.439593 13.5065 170 158 126
2.42947 -0.540201 12.9651 138 138 104
2.54153 -0.494374 12.969 56 59 26
0.847264 1.68845 7.86114 140 134 104
1.07182 1.69457 7.8193 106 106 83
3.26593 1.35406 11.4919 34 14 8
3.0919 1.61061 12.986 114 100 84
1.15969 1.85051 7.48436 105 105 84
2.29484 2.071 10.6939 32 12 8
2.5956 3.66489 12.9432 72 44 35
-0.387961 -3.19975 11.7903 107 112 72
4.67955 -2.69326 10.3409 111 114 73
4.17173 -2.48204 10.4725 130 136 94
3.42227 -1.72027 10.3641 68 75 50
1.53696 0.0424382 8.24609 72 74 40
1.49172 0.0787253 8.25559 150 148 104
1.01092 -0.443065 13.5993 166 156 122
2.53524 -0.503992 12.9844 56 56 24
3.03477 -0.175008 12.2129 122 122 92
3.06614 -0.0465464 11.7678 102 96 66
0.336081 1.35189 9.99623 76 62 40
0.356022 1.41214 9.8466 110 80 50
1.19592 1.45966 7.8891 84 85 57
3.21328 1.2118 11.3974 71 41 32
3.10518 1.31986 12.7903 126 114 99
1.0897 1.86301 7.5708 101 101 79
2.25659 2.08216 10.5857 38 12 7
4.73876 -2.67441 10.2324 147 151 106
4.0524 -2.18309 10.3134 74 77 52
3.23989 -1.55825 10.4128 58 64 38
1.44919 -0.348365 12.8654 158 130 88
2.34634 -0.428247 13.3842 136 130 102
-0.462251 0.880092 10.3041 151 139 96
3.14676 1.23039 11.1529 50 23 16
1.29239 1.7216 7.60332 72 76 56
-0.673012 2.63478 12.5654 36 8 0
0.694948 2.52667 10.6782 20 4 2
0.71728 3.34284 11.3865 110 80 74
1.75102 -1.09806 11.806 152 156 121
2.54186 -0.868936 10.5964 78 84 69
1.00395 -0.501454 13.6229 101 78 48
2.18638 -0.309755 13.3999 80 63 40
2.94357 -0.211689 12.5631 126 128 96
0.882535 1.8885 7.59501 134 126 103
2.61503 3.56662 12.9257 114 84 78
4.16891 -1.52686 8.69201 56 60 33
-0.963006 0.00213219 10.6221 123 107 66
1.10801 -0.519033 13.2082 145 142 113
0.925175 1.86725 9.9705 97 50 38
0.640224 2.90989 11.0447 97 66 56
1.04623 2.77292 7.15489 94 86 58
0.971822 -0.439561 13.7616 164 156 118
2.31823 -0.430638 13.4528 119 112 86
3.0086 -0.381598 12.8211 109 109 78
1.23745 1.18344 9.94108 67 44 38
1.45331 1.13521 10.3503 31 22 16
1.27683 1.22961 10.1089 14 8 4
0.89112 1.87583 10.0438 112 66 52
-1.80474 -4.50873 12.758 102 106 58
-2.10496 -2.64934 9.59813 44 44 21
1.09847 -0.424021 13.5788 162 152 104
3.29437 1.04086 10.7771 150 115 99
3.30774 1.07697 10.9621 91 62 50
2.48617 1.55095 9.86172 152 116 105
3.25154 1.09227 11.4629 134 98 88
4.97392 -2.79953 10.0478 85 88 46
-2.75735 -0.541198 11.3139 83 66 20
2.50468 0.873237 10.5363 56 56 41
1.74415 2.98516 10.9412 104 56 46
2.79797 3.27244 13.1015 71 40 28
-3.20747 -3.46598 9.33948 98 92 46
-0.215985 -0.955128 10.5955 78 81 56
1.19695 -1.37494 12.0755 92 96 56
-2.19303 -0.873936 11.4319 114 111 57
-2.02091 -0.86108 11.4974 122 118 64
2.7002 -1.06042 10.5898 78 84 64
1.94569 -0.721623 10.1551 99 104 68
2.53207 -0.862366 10.6033 82 85 70
3.55273 -1.06182 12.0693 118 124 78
2.30543 -0.655733 10.6845 76 80 63
-1.3609 -0.236726 11.4888 115 104 64
1.42818 -0.452176 11.2458 148 149 105
-1.1116 -0.0844439 10.9595 106 96 43
-1.05839 -0.0411025 10.7838 134 121 74
3.44718 -0.826775 12.4838 136 128 95
3.67291 -0.716756 11.8328 76 64 34
1.4747 -0.286412 10.9087 140 146 108
1.56506 -0.401008 11.9598 154 154 120
3.51005 -0.693749 12.5573 104 80 58
2.52594 -0.60425 12.9383 58 57 18
1.22546 -0.349163 12.4737 78 69 55
2.28453 -0.604476 13.2993 88 88 53
-0.913124 0.20382 10.4699 132 118 67
0.658176 0.148311 9.34837 113 110 60
1.02576 -0.39701 13.3633 109 90 76
0.960846 -0.414547 13.5787 60 42 23
2.51236 -0.556381 13.0958 138 142 103
2.23553 -0.488175 13.2581 138 136 100
-0.212081 0.179306 11.17 134 125 82
2.28486 -0.345529 12.864 106 88 68
-0.327729 0.362339 11.0901 134 128 78
-2.61994 0.818382 9.91189 136 133 92
-1.04993 -0.543506 20.8595 154 136 105
0.666078 0.486699 9.86118 63 64 49
-0.748676 0.742618 10.2545 123 93 71
-0.500165 0.719356 11.04 145 129 113
0.191233 0.680551 10.2993 78 66 46
3.59541 0.13142 11.1261 116 81 69
-0.610458 0.827534 11.1763 130 113 92
-0.647808 0.875001 11.1705 128 109 90
3.43181 0.235795 11.5421 72 44 26
-1.02078 0.988759 11.5166 141 122 106
3.64846 0.274564 11.0224 106 82 70
-0.480228 1.0251 10.8252 150 135 114
3.32091 0.301785 12.3025 92 67 43
3.57649 0.440502 10.9821 42 20 7
0.854041 1.10677 8.3241 117 111 86
3.1445 0.546185 12.6918 68 48 34
3.41769 0.638597 11.3244 72 48 31
1.27861 1.21567 8.05956 106 108 80
1.40131 1.1959 8.09469 99 108 84
-0.560401 1.52256 11.283 100 82 66
3.34735 0.83614 11.5258 74 50 38
0.299434 1.5228 9.87642 112 67 43
3.34772 0.955381 11.6647 116 100 94
-0.402336 1.75778 10.6815 161 134 116
3.48564 0.963855 11.3711 111 96 92
3.20114 1.0217 12.6091 112 94 84
3.2671 1.09619 11.2356 140 104 90
3.25065 1.09608 11.7454 62 42 36
2.98913 1.21072 9.93563 114 94 74
2.46676 1.32058 9.96659 88 68 43
3.19785 1.17742 11.6295 90 60 52
3.12323 1.29686 10.853 54 34 28
3.15641 1.29871 12.6858 118 102 90
3.12397 1.32374 9.77278 135 110 96
3.15741 1.34226 12.6104 33 13 6
2.65378 1.50519 9.82095 126 96 76
2.96003 1.54261 13.3245 140 134 120
2.99393 1.54365 11.0616 120 102 98
3.08117 1.59659 13.0887 132 126 112
3.06531 1.60776 12.9064 112 92 79
2.38876 1.73922 10.3211 92 72 56
0.839089 2.14115 10.2552 112 69 58
2.91958 1.83779 11.2863 31 9 6
2.90873 1.99345 13.2338 84 68 54
2.77976 2.15292 11.3798 34 8 4
1.48841 2.56924 10.6919 120 88 78
1.58287 2.56325 10.5781 116 88 80
2.78303 2.36084 11.4924 98 71 66
0.694372 2.87682 10.953 121 88 77
0.795838 2.92362 10.8938 110 76 68
2.88784 2.59254 12.6671 112 89 83
2.6999 2.71847 11.7127 112 85 82
2.66187 2.94853 13.651 104 86 73
0.814545 3.28297 11.2185 126 88 78
0.812348 3.32461 11.2627 112 78 68
2.80944 3.01537 12.8534 107 82 80
2.30548 3.10791 11.1123 108 78 73
0.768475 3.80585 11.7608 103 66 62
1.37896 3.73461 11.6849 54 17 11
2.56605 3.60013 12.6541 119 98 95
2.34659 3.84074 12.3389 57 32 29
2.13573 3.97338 12.5022 84 62 61
-2.76305 -2.83796 9.67825 46 48 22
-0.625316 -3.12555 11.7291 87 92 59
4.35817 -2.66754 10.6155 114 118 76
-2.32123 -0.890269 11.5499 135 130 76
-2.82783 -0.565426 11.4115 96 76 28
3.72655 -1.30963 12.1906 92 96 56
3.86207 -1.19478 11.9633 82 82 45
3.37175 -1.07303 12.5175 138 146 99
0.468454 -0.203637 9.97254 66 66 39
1.93288 -0.467388 10.9856 74 79 60
3.57841 -0.812048 12.1912 126 120 86
0.821427 -0.0912127 10.179 42 46 18
1.54933 -0.409542 11.9981 150 151 118
0.970072 -0.515955 13.6903 112 88 52
3.10637 -0.593889 12.1165 156 164 123
0.948768 -0.49577 13.8109 102 76 36
0.891488 -0.462996 13.8183 157 146 110
0.714257 -0.43687 13.8811 94 76 59
0.986857 -0.411597 13.5377 70 52 36
2.31384 -0.544948 13.2033 149 149 114
2.76374 -0.153416 12.6594 104 80 46
2.93236 -0.0778727 12.2492 32 20 1
-0.00260678 0.69566 9.37016 140 126 103
-0.502915 0.74969 9.96214 108 75 50
3.57508 0.122191 11.1872 128 92 82
-1.02097 0.987961 11.5085 128 109 90
3.61976 0.257245 11.1882 134 108 87
3.34361 0.298832 12.2364 105 82 58
3.37618 0.45132 11.4118 48 26 16
1.36162 0.971308 8.53222 90 64 40
3.20875 0.548164 12.5327 96 76 62
0.429844 1.25167 9.85125 56 40 23
3.31232 0.638972 11.5412 87 64 48
2.46937 0.837008 14.546 68 58 42
1.62109 1.08736 10.0333 43 29 18
-0.100171 1.4112 10.8445 99 76 56
3.18758 0.757632 12.6789 112 102 92
3.38902 0.828757 11.4404 126 103 90
3.00315 0.86613 13.028 44 22 12
3.06057 0.962666 10.7146 36 14 4
1.20958 1.39564 7.9417 85 94 70
3.40679 0.885109 11.7287 90 66 53
3.2575 0.902762 12.6537 94 80 66
2.76019 1.06625 10.231 51 48 32
3.31593 0.961821 11.7238 96 78 71
3.31466 0.989402 11.6279 39 18 16
-0.149556 1.74412 10.5532 152 116 92
3.13063 1.07342 12.8498 65 50 38
1.49436 1.46197 10.0183 52 18 8
2.93912 1.20085 10.0063 120 100 80
0.602543 1.6967 10.0501 70 24 4
1.20573 1.6397 7.68681 99 100 78
3.12356 1.29268 10.8627 102 80 74
3.10588 1.33501 10.6902 124 89 82
2.57262 1.46026 9.90703 120 90 65
3.00391 1.57115 13.216 66 59 44
2.94806 1.5966 11.1373 110 92 88
2.9455 1.59923 11.2216 24 8 6
2.81655 1.67065 12.6483 29 13 8
2.97918 1.89379 13.1021 126 114 102
3.04644 1.8613 12.1521 37 18 10
0.586905 2.42508 10.6378 105 68 58
2.86611 2.05864 13.2611 40 18 8
2.90171 2.04006 11.2361 95 73 69
2.83022 2.109 11.36 107 86 82
2.89754 2.2657 11.7173 100 70 64
2.88653 2.39431 13.25 116 102 86
1.69468 2.501 10.4015 118 86 75
2.75468 2.36984 11.5425 90 60 55
0.768994 2.86137 10.8637 114 75 64
0.841651 2.8911 10.8855 52 15 4
2.76336 2.64928 11.6305 80 48 44
0.848905 3.27042 11.1765 106 62 52
2.68168 3.45652 13.0858 91 64 57
2.09975 3.57689 11.6391 110 79 77
2.06219 3.68187 11.7562 110 88 84
2.26913 3.89478 12.2282 120 98 97
1.33752 -1.98599 11.963 128 130 86
2.26417 -1.05451 8.16804 152 148 102
3.27674 -1.55124 10.3649 68 72 48
-0.526379 -1.1842 10.5099 76 78 53
2.82767 -1.23961 10.6034 73 78 56
2.56575 -0.860914 10.5456 66 70 54
3.7708 -1.19996 12.2088 83 86 47
0.0649406 -0.432813 10.4174 87 86 57
-1.12488 -0.227311 10.8219 70 44 21
0.440064 -0.320226 10.2481 87 87 52
-0.814807 -0.205511 11.3048 34 35 10
-1.12418 -0.0870948 10.9621 71 56 12
0.893223 -0.442459 13.4763 82 66 44
2.44048 -0.61178 13.0901 66 64 26
-1.05547 0.200052 10.6196 118 101 52
2.54841 -0.569059 12.9513 134 133 94
0.657839 0.146086 9.35203 113 110 60
1.0931 -0.406439 13.3872 64 48 27
-3.25082 0.858836 10.3906 123 120 78
1.10922 0.426526 8.99293 93 96 58
-0.945513 0.88246 11.5061 74 54 32
3.18286 0.165863 12.2431 64 32 12
3.33351 0.299452 12.2721 96 72 46
3.23461 0.449695 11.7324 24 8 2
0.782442 1.11044 8.39033 138 129 107
0.845523 1.09907 8.82574 116 104 76
3.51451 0.525135 11.9052 61 41 28
3.05057 0.576522 13.196 142 142 120
3.15227 0.644522 12.8951 77 65 45
1.10814 1.23423 8.22252 100 101 72
3.12994 0.681939 12.9156 70 57 40
1.62384 1.08459 10.0201 70 54 40
-0.472901 1.50009 11.1955 107 86 72
3.31655 0.737506 12.4142 138 132 120
3.34147 0.830527 11.548 126 103 90
0.31891 1.52304 9.86398 111 68 44
3.11203 0.911158 12.9644 82 67 51
3.31846 0.948092 11.8408 82 60 49
3.24782 0.995525 11.8595 90 74 71
3.32502 1.00149 11.6049 31 12 9
0.0365737 1.69964 10.3465 156 119 93
0.0603895 1.74619 10.4084 167 124 100
0.152617 1.74696 10.4155 120 75 48
3.30438 1.18456 11.457 108 79 70
3.11813 1.29888 10.8145 125 100 95
3.00803 1.33207 13.0102 110 93 82
3.0592 1.33908 9.89254 126 104 88
3.2388 1.30124 10.456 126 92 85
0.59816 1.91662 10.1663 106 64 50
0.037057 2.0788 10.6629 130 102 82
0.173332 2.07161 10.7786 60 30 23
3.08003 1.4961 13.0334 98 84 67
3.05777 1.52523 12.3542 53 28 18
3.3023 1.5943 12.3242 34 17 7
2.24743 1.82968 10.4776 25 4 0
2.86479 1.93428 13.3527 126 114 102
3.02539 1.86883 12.2021 30 11 6
2.3254 2.01119 10.5406 95 66 56
2.07906 2.2051 10.5493 94 54 44
0.691867 2.57657 10.892 32 6 2
1.68149 2.29888 10.3315 49 22 17
2.78706 2.11717 11.4493 104 84 79
2.83415 2.12682 11.2657 36 12 6
2.39639 2.20079 10.52 112 87 82
1.70341 2.49787 10.3893 118 86 75
1.40034 2.61926 10.7457 52 17 7
2.65406 2.93838 13.6795 110 90 78
1.60177 3.50594 11.3136 58 20 12
2.30964 3.79667 12.5395 114 98 96
1.41842 4.05429 11.6404 102 52 35
-1.35347 -0.70648 11.5507 144 140 98
0.157518 -0.674802 10.7388 84 84 54
3.83733 -1.18001 12.0225 82 83 46
-1.12843 -0.200265 10.973 48 26 8
-1.29877 -0.228566 11.4119 132 122 77
0.978595 -0.424703 13.2836 84 66 42
2.3808 -0.614349 13.1943 76 74 36
0.982232 -0.444719 13.7151 166 158 118
1.00618 -0.448865 13.9351 161 144 102
-1.04107 0.179335 12.1123 144 135 86
1.84994 -0.373463 13.6305 92 72 54
-0.178663 0.368095 9.78702 140 132 78
1.12816 -0.347547 14.67 98 72 46
2.91062 -0.158994 12.3408 82 66 36
-1.01454 0.767927 10.5377 122 94 70
-0.487117 0.999188 10.8546 142 124 102
3.1965 0.324906 11.9196 88 70 61
3.38709 0.303738 12.1314 110 86 62
3.29331 0.562304 12.4353 53 30 20
1.17239 1.22138 8.1651 98 98 69
-0.318694 1.39478 11.0425 129 108 96
1.35147 1.1792 9.93432 15 8 4
3.43916 0.713011 12.1626 140 133 120
3.38144 0.838524 11.4446 110 86 76
3.17975 0.833025 12.7624 60 42 32
2.95808 0.969067 12.6631 124 103 91
3.4682 0.950792 11.3982 99 84 80
3.41086 0.988558 11.4319 51 30 25
3.10015 1.09558 12.7822 28 13 6
3.13812 1.08751 12.8031 54 36 24
0.92464 1.63622 7.79155 130 122 102
3.36467 1.17311 11.3389 111 82 73
3.10835 1.27935 10.5824 76 40 29
2.85561 1.36271 10.2097 132 108 94
1.05283 1.77339 7.91687 132 132 110
3.04947 1.49805 13.0814 101 88 72
3.00677 1.60308 12.2785 25 9 5
3.02737 1.67768 12.953 28 12 2
2.8997 1.82092 11.2248 92 68 65
2.74951 1.90573 11.3925 27 6 2
1.05448 2.38165 10.5897 40 8 4
1.64882 2.26106 10.2868 87 56 49
2.32214 2.23412 10.639 112 88 84
0.58278 2.81152 11.0931 40 5 0
0.653041 2.9181 11.0332 120 87 78
1.27211 2.69189 6.95891 92 82 58
1.36467 3.7353 11.7345 52 15 8
2.13257 3.57031 11.597 116 87 84
2.35104 3.71866 13.021 121 101 98
1.60079 4.03663 11.813 104 56 43
1.87388 4.10941 12.106 79 39 26
1.77197 4.15664 11.9489 102 64 50
3.05261 -4.1678 11.6629 66 79 38
4.33966 -2.67949 10.6506 128 134 90
3.37346 -1.74867 10.4661 64 72 46
-0.347534 -0.991104 10.6788 72 72 50
2.67092 -1.07623 10.632 58 64 43
-2.22633 -0.675735 11.2481 84 80 39
-2.84144 -0.556697 11.4398 92 68 22
3.81066 -1.18115 12.0347 84 80 48
-0.320164 -0.452314 10.8351 74 74 46
1.35374 -0.671846 11.5856 156 158 108
-1.25962 -0.228263 11.3761 106 94 56
1.01992 -0.344258 11.5626 128 133 93
1.06684 -0.488499 13.4996 110 86 55
2.38719 -0.607685 13.1187 137 138 100
1.00442 -0.403227 13.1894 79 58 34
2.29599 -0.51345 13.1515 153 162 114
1.17245 0.107276 9.47742 68 70 29
2.2138 -0.49339 13.1973 158 165 118
-1.26054 0.184691 12.3539 146 138 82
0.500922 0.34219 9.29527 142 138 84
-2.94284 0.85394 10.0262 148 142 110
-0.543354 0.847881 11.0693 96 76 54
1.07566 0.922072 8.54177 82 83 52
3.25612 0.617525 11.3538 126 88 73
0.730398 1.25679 8.80175 106 109 86
0.598132 1.24004 9.62102 83 60 37
1.18307 1.21693 8.14486 91 92 62
-0.491646 1.4175 11.2466 143 120 105
3.07559 0.675814 13.0118 73 56 39
0.893346 1.38138 8.03333 132 122 101
3.29648 0.844932 11.6381 96 71 59
3.06846 0.908097 12.997 69 47 34
0.197314 1.56036 10.0074 102 59 36
2.93317 1.0799 10.7018 122 90 70
3.05187 1.02085 13.0167 129 116 106
2.80519 1.20596 10.2291 110 90 72
3.0661 1.31982 12.8639 90 72 62
3.02836 1.3822 12.8438 57 36 27
0.823352 1.88255 10.1274 132 84 70
0.81995 1.88755 7.65758 134 126 107
3.0858 1.5432 12.1637 74 55 49
3.01511 1.58117 13.1412 54 37 22
2.99934 1.61758 12.2367 40 22 16
2.8265 1.83212 11.3354 73 44 41
3.01165 1.8257 12.2959 76 53 42
3.05211 1.80392 10.8095 40 19 15
0.786594 2.42185 10.5111 32 6 1
2.92936 2.04791 13.071 32 16 10
1.60942 2.26369 10.3401 86 52 44
2.99175 2.12234 12.349 60 44 42
3.05209 2.11039 12.3901 34 18 11
1.55953 2.54509 10.5835 110 76 65
2.96662 2.4378 12.9022 55 28 21
2.64239 3.55913 13.0179 74 47 40
2.61982 -4.51074 12.4944 66 76 36
-3.18431 -5.1776 14.3838 94 101 55
2.37481 -1.53113 11.5896 48 52 34
-3.36624 -0.974953 12.5242 148 146 90
-0.261571 -0.732757 11.1819 79 76 46
2.25404 -0.612427 13.3874 112 113 76
2.34239 -0.630643 13.4363 153 161 115
0.0640326 0.356615 9.73866 146 141 86
-0.650981 0.75862 10.9768 88 75 48
-0.498072 0.728171 11.0445 114 100 80
-0.528459 0.832413 11.057 73 54 31
-0.651149 0.988579 11.0376 70 54 30
3.22097 0.437035 11.8054 17 7 1
3.12705 0.599828 13.0232 146 140 122
1.56222 1.04674 10.1613 84 61 44
1.23026 1.2132 8.09893 90 91 62
-1.56309 1.57502 12.0405 96 70 44
-0.497023 1.42201 11.229 78 60 48
0.934339 1.37246 7.99041 132 122 101
3.07301 0.924275 12.9678 74 49 38
2.84809 1.03216 10.8002 30 14 8
2.90308 0.997266 12.6948 58 36 26
3.10681 1.04917 12.0748 42 25 19
2.96108 1.12713 13.063 30 15 8
3.27932 1.23438 10.4648 150 122 116
3.12444 1.28345 10.4688 74 35 23
3.05718 1.33875 10.7728 106 71 63
-0.621409 2.22808 11.3815 154 136 114
0.623956 1.96344 10.2379 60 30 23
3.02232 1.63692 12.1596 24 11 6
1.19708 2.65071 10.4741 40 9 0
0.575454 2.95657 11.1376 116 86 76
2.4253 3.23027 12.2099 82 52 49
2.13115 3.61225 11.6049 92 64 60
-3.32539 -5.22751 14.5243 112 118 71
-2.68769 -0.721745 11.4775 58 45 8
3.33477 -0.841457 12.2417 140 153 116
1.1708 -0.366102 11.3568 148 154 108
1.32403 -0.446211 12.3589 145 146 109
1.50212 -0.403511 12.4721 77 58 38
2.53892 -0.614768 13.0271 152 160 114
1.67831 -0.399818 12.5746 158 148 106
2.43832 -0.554955 12.9825 136 138 102
1.59156 -0.401254 14.1298 85 68 47
1.54603 -0.322282 13.8537 82 56 31
-2.52581 0.845402 9.60127 159 150 126
0.691809 0.569474 9.47786 34 35 16
2.87721 -0.133073 13.3696 128 99 88
-0.109429 0.706305 10.5958 108 94 74
1.15677 0.637349 11.2312 76 71 56
-0.247945 0.95992 10.5915 92 75 52
3.2231 0.333862 12.1088 95 68 40
3.25322 0.573917 12.4122 89 66 52
2.8866 0.631193 13.588 134 128 110
0.337128 1.30044 9.87245 99 70 44
-0.209641 1.40926 10.7244 20 10 5
-0.103592 1.3873 10.7715 72 58 44
1.24085 1.15728 10.0726 14 7 2
0.802792 1.30579 9.17222 109 92 68
3.27198 0.869357 12.4995 62 40 30
-0.278475 1.77128 10.782 156 108 76
1.15687 1.65558 7.71448 90 89 68
3.00547 1.26619 11.2837 49 28 21
2.41214 1.52306 10.045 168 120 94
2.73109 1.66245 13.7789 52 33 20
3.2451 1.57032 11.6775 30 13 8
1.76609 1.99712 9.94327 64 33 26
0.948118 2.46362 10.4553 21 8 4
2.85398 2.23889 13.3892 90 58 37
2.25552 2.26781 10.7081 61 32 26
0.869775 2.71785 10.7233 40 9 2
2.81016 2.41621 13.3722 84 52 32
0.161266 2.98335 11.3123 146 130 114
1.49385 2.5665 6.87525 80 74 49
2.87024 2.6971 11.549 47 18 15
1.59907 3.54597 11.0536 52 12 5
1.00375 3.93237 11.4653 96 65 61
1.77657 3.96301 11.2488 112 64 49
1.53419 -2.56157 11.8761 121 127 85
-2.92081 -0.935928 12.0609 152 150 95
-1.02969 -0.689255 11.1581 134 132 90
3.7527 -1.22909 11.9983 98 97 58
-1.34771 -0.441064 11.0574 150 146 82
1.01537 -0.705346 12.0914 156 160 109
2.91961 -0.950417 13.1452 139 155 113
1.47593 -0.353896 10.8975 120 127 86
2.04971 -0.425238 11.1945 107 108 76
2.2423 -0.379259 11.3142 110 95 68
2.44665 -0.573172 12.9577 140 145 106
1.87433 -0.545716 13.7959 154 164 116
-0.805018 0.398793 10.0444 151 140 85
-1.55314 0.370102 11.2028 144 137 78
0.956513 0.268348 9.53612 134 132 76
3.15034 -0.287227 12.0868 66 62 29
3.11624 0.185548 12.3465 60 31 12
2.93078 0.618953 13.584 147 147 136
3.36911 0.726223 12.2508 94 79 70
1.53544 1.23519 9.99287 18 10 6
3.34574 0.95245 12.2936 74 54 41
2.8727 1.17794 10.1162 47 30 13
2.94116 1.11277 13.0617 44 28 18
2.88084 1.18006 12.1777 134 100 88
2.12966 1.39453 10.4028 120 81 55
3.07115 1.65647 12.7553 79 54 44
2.74962 2.44709 13.5908 119 105 90
1.19103 2.59023 7.26213 60 57 32
2.81414 2.70695 13.3405 76 41 26
1.31853 2.6487 6.91836 161 148 137
0.872689 3.97257 11.6607 52 20 14
1.32873 4.1891 11.9213 104 58 42
1.75837 4.15966 12.1841 102 66 57
2.722 -1.23258 7.56811 136 132 96
2.53197 -1.25772 8.75012 105 112 72
2.02706 -0.848875 9.99477 111 116 78
-2.85299 -0.545711 11.4262 92 68 24
-1.33028 -0.437841 11.2187 136 128 92
2.51256 -0.571198 12.9891 112 112 74
1.18027 0.533384 10.7287 59 62 48
3.73148 0.181206 10.9821 74 42 19
1.41166 0.640119 11.8626 16 15 4
1.18439 1.18836 8.36097 122 118 94
0.529753 1.33813 10.103 100 74 56
2.99039 0.907194 11.1753 48 15 3
0.251442 1.58784 9.96112 128 90 66
2.78729 1.32294 10.3128 130 110 94
2.64925 1.55163 9.80748 56 24 10
3.07947 1.55656 13.0745 58 52 36
3.0373 1.79466 10.8943 40 16 12
1.51647 2.31149 10.4818 116 88 81
2.80886 2.63036 11.5476 87 55 51
2.26247 2.73921 10.9745 122 103 97
2.07675 3.97737 12.0719 73 37 31
2.70567 -1.23932 7.586 138 134 95
3.41786 -0.97579 6.71808 101 96 58
2.64374 -1.08855 10.6999 63 68 49
3.33408 0.279795 11.6795 130 102 91
3.30837 0.356639 11.6666 54 34 25
0.212429 1.60022 10.0062 133 96 72
3.14793 1.06676 12.6368 38 22 14
2.80388 1.32091 10.2756 114 98 80
3.18273 1.33653 12.5278 54 31 24
2.39725 1.56759 10.2405 136 102 82
0.719442 1.95677 7.88533 108 108 88
0.609919 2.15999 10.2713 50 16 6
2.40285 1.75514 10.31 108 84 77
0.874136 2.12545 10.2014 93 48 34
2.92913 1.93436 13.1134 106 88 78
2.23555 2.0404 10.6775 98 68 62
2.77624 2.88011 13.388 91 70 56
1.49249 3.66696 11.5213 58 25 18
2.72815 -1.29532 8.36952 98 102 72
2.4055 -1.17014 9.06173 101 108 74
2.41797 -0.908617 8.56998 86 88 78
-2.20762 -0.875766 11.4408 132 127 72
1.97466 -0.899585 10.043 145 151 111
0.938141 -0.581179 10.2167 108 103 70
2.21473 -0.687535 10.8455 61 64 46
1.05437 -0.391567 13.3398 98 80 68
0.78286 0.503407 10.1499 55 52 38
1.19868 1.28784 8.6486 118 103 78
2.74216 1.22946 10.3669 120 102 86
1.30326 1.70515 7.68702 140 139 116
2.23194 2.74649 11.1047 50 22 18
0.751048 3.29999 11.2995 114 71 62
2.59567 3.59065 13.1218 68 44 36
1.51794 4.07731 11.9614 101 55 41
3.24364 -1.01893 6.94716 126 122 82
2.71279 -1.34163 8.34373 140 144 104
2.61148 -1.22686 8.63656 99 108 70
2.3528 -1.18227 9.1176 100 109 78
-0.143412 -0.951217 10.4775 84 83 60
2.85772 -1.22993 10.5492 78 81 57
1.82066 -0.960437 10.2583 140 146 106
0.757941 0.503223 10.1689 62 59 44
3.088 0.20019 12.4739 45 14 2
3.24396 1.07928 11.7881 24 10 2
3.0744 1.30658 12.867 116 98 86
3.04725 1.38027 12.8502 38 18 10
0.793872 1.88212 10.1522 114 66 52
-0.0256756 2.08748 10.7201 154 133 111
2.93531 1.91915 13.1724 120 109 98
0.304204 2.56794 10.7968 149 120 100
2.84693 2.49062 13.2167 47 18 9
3.00653 2.59772 11.1148 94 66 64
2.0479 3.2943 11.5801 115 92 89
