ply
format ascii 1.0
element vertex 1325
property float x
property float y
property float z
property uchar red
property uchar green
property uchar blue
end_header
1.45117 1.76136 7.1457 178 152 149
0.831915 1.77087 7.09928 178 150 148
0.835403 1.78988 7.09134 162 140 142
0.865507 2.00917 7.35787 144 124 124
0.113747 -1.33789 7.31744 152 156 121
-0.556049 -0.974492 6.19403 123 120 97
-0.51318 -0.985162 6.22263 179 174 142
0.0608143 -1.30232 7.30965 152 150 117
-0.525026 -0.925907 6.25572 172 166 148
-0.459962 -0.911117 6.25564 183 180 162
0.322641 -1.19593 7.33951 179 181 147
-0.403662 -0.888005 6.28627 114 114 82
-0.374046 -0.887066 6.32501 211 208 162
-0.347286 -0.86999 6.30528 162 159 115
0.261459 -1.13657 7.24778 174 178 146
-0.429608 -0.821812 6.15611 145 145 122
-0.388666 -0.797804 6.26077 146 144 122
0.423822 -1.0696 7.27079 198 200 160
-0.261706 -0.811452 6.40897 142 140 102
0.348236 -1.00321 7.19266 176 178 144
-0.275943 -0.748498 6.33311 160 158 135
2.36236 -0.783242 6.54677 216 214 175
-0.222879 -0.757435 6.40298 128 127 92
-0.161179 -0.724006 6.37225 141 140 101
-0.247416 -0.662388 6.19019 160 158 136
-0.269465 -0.657897 6.19331 162 158 130
-0.313795 -0.678968 6.31961 114 112 77
0.598682 -0.835404 7.12117 224 226 185
-0.171379 -0.654202 6.35868 150 148 126
-0.215482 -0.606015 6.31131 150 146 118
0.621498 -0.738331 6.91987 185 192 150
0.4492 -0.66233 7.01946 168 172 130
0.457094 -0.621829 6.94325 129 134 90
0.506163 -0.527221 6.86844 154 156 112
0.524528 -0.516453 6.8758 182 184 140
-0.00540534 -0.423305 6.38161 160 158 134
0.53057 -0.495019 6.89162 132 136 90
0.676534 -0.477429 6.96207 175 181 147
0.687793 -0.449482 6.88006 178 182 148
0.176928 -0.365394 6.53772 150 148 126
0.102968 -0.320413 6.39264 176 174 148
0.295461 -0.376061 6.77411 184 184 146
0.201212 -0.340249 6.58525 163 161 138
0.18473 -0.237582 6.5129 171 168 146
0.305132 -0.242836 6.5935 162 161 140
1.29853 -0.287442 7.20163 132 140 102
0.93319 -0.236727 6.95941 203 210 167
2.23118 -0.270864 7.30518 195 191 151
2.22411 -0.24936 7.24555 140 136 98
0.850431 -0.133386 6.3277 174 174 126
0.257551 -0.15135 6.52133 171 168 146
1.31244 -0.208966 7.30856 138 145 111
0.43209 -0.140722 6.70004 166 167 142
0.478761 -0.139512 6.74632 142 142 113
0.966178 -0.134824 6.85171 231 234 190
0.510981 -0.0801088 6.75852 158 158 128
0.347447 -0.0493519 6.49325 172 170 144
0.523832 -0.0670275 6.72975 166 164 136
-0.23307 -0.0788833 7.02689 186 187 144
2.13776 -0.0870496 7.37875 129 126 86
-0.132596 -0.0701002 7.21603 206 208 164
-0.0950273 -0.0502473 7.0857 156 158 114
2.18898 -0.0381222 7.35121 176 164 128
2.17321 0.0217946 7.28023 196 168 138
2.19061 0.0179947 7.32724 130 100 64
0.116418 0.0444515 7.09844 186 188 148
0.13612 0.0500614 7.09987 159 162 120
2.09567 0.0700529 7.21985 141 128 96
-0.0343304 0.106175 6.9556 127 112 85
-0.122471 0.113384 7.03866 197 188 142
0.0201905 0.16536 6.88865 166 146 121
2.18979 0.180265 7.04522 165 128 104
1.09697 0.229236 6.45373 89 93 70
0.752127 0.240079 6.73072 161 164 140
0.0699995 0.327739 7.32889 174 151 111
1.20917 0.362082 7.17782 87 80 68
0.894073 0.373597 7.1316 92 94 66
1.92288 0.513637 7.33366 148 120 91
1.97874 0.534537 7.3441 120 89 66
0.325541 0.52202 5.89814 110 92 66
1.90794 0.582797 7.2233 86 58 40
1.89404 0.63143 7.091 82 52 26
1.95009 0.65201 7.0126 168 130 111
1.90959 0.669456 7.03242 211 170 151
1.60999 0.680154 6.69987 34 21 6
1.63559 0.680642 6.72507 62 50 36
1.98586 0.711663 7.01069 172 116 92
1.89315 0.718754 7.04407 176 137 112
1.80935 0.719955 6.88107 73 46 27
1.81312 0.734538 6.82808 162 140 120
1.86382 0.736253 6.84434 102 73 55
1.99321 0.787541 6.96207 218 177 160
0.39903 0.783302 6.43871 192 180 183
0.991442 0.721167 5.73033 128 140 102
0.376698 0.810826 6.66728 203 189 187
0.402526 0.809357 6.64982 90 79 78
0.357617 0.810983 6.60417 129 104 84
0.964251 0.726604 5.73849 140 146 112
0.421044 0.827349 6.58347 78 60 54
0.448531 0.842301 6.62114 92 62 53
0.220958 0.886987 6.78974 142 90 61
0.344172 0.867339 6.53551 117 75 52
0.252679 0.890562 6.65256 206 158 126
1.25384 0.857168 6.2673 180 142 133
0.205154 0.913865 6.76637 110 64 44
1.31038 0.874113 6.32388 152 120 112
1.58134 0.898822 6.52055 78 60 40
1.90656 0.877358 6.33279 212 210 193
1.24917 0.877386 6.25274 180 142 136
1.92974 0.886887 6.33162 159 156 132
0.769306 0.918596 6.50008 132 109 99
1.23051 0.927983 6.51179 119 92 85
0.778132 0.925861 6.46137 96 68 62
1.25486 0.90401 6.2555 144 104 94
1.24301 0.946788 6.44182 81 46 35
1.58332 0.961014 6.52464 178 143 132
0.188749 1.04872 7.13034 157 118 98
1.20819 0.950118 6.39179 86 64 54
0.349437 1.00106 6.66233 158 120 106
0.143752 1.09194 7.30013 123 84 66
0.370846 1.0133 6.71324 95 56 40
0.386982 1.01624 6.73407 134 92 77
0.157875 1.10898 7.36088 179 144 128
0.404134 1.02405 6.75516 91 50 34
1.83994 1.07598 6.94182 154 131 125
0.561681 1.0192 6.49016 194 152 134
0.573643 1.01809 6.45122 194 154 138
1.82043 1.10374 6.96477 194 176 169
1.42454 1.0484 6.53931 100 64 56
0.733173 1.04264 6.44731 134 92 76
1.76893 1.14546 6.97929 99 67 64
0.153897 1.22087 7.43981 174 135 111
0.768565 1.07759 6.49662 64 33 26
1.54714 1.12107 6.71575 55 30 23
0.182195 1.24725 7.2975 80 42 22
0.9156 1.12791 6.45319 182 142 136
0.775154 1.16239 6.49732 69 40 34
0.227923 1.35349 7.41046 162 134 118
0.86112 1.23367 6.42749 128 90 87
1.47317 1.29348 6.77802 159 126 124
1.76398 1.37983 7.23818 81 54 48
1.73717 1.39776 7.26465 128 95 92
1.71637 1.42212 7.19448 90 58 54
1.78642 1.47156 7.34324 122 100 96
0.766603 1.38437 6.79444 70 34 28
0.799726 1.39765 6.71989 70 42 38
1.50628 1.43985 6.9027 166 130 126
1.67418 1.57796 7.31655 90 52 50
0.780205 1.49734 6.82737 57 20 13
1.57549 1.57361 7.16312 116 74 70
0.455413 1.62669 7.34441 70 30 16
1.49513 1.59307 7.08134 164 142 143
0.805201 1.57951 6.92774 147 118 115
0.850255 1.81359 8.0235 144 124 122
2.15702 1.48207 6.34471 218 198 183
2.23577 1.43328 6.13066 144 96 72
0.505818 1.78861 7.39374 171 132 120
0.532373 1.7835 7.34214 96 50 39
1.43885 1.76569 7.17685 90 52 48
0.836924 1.7917 7.10888 162 143 144
-0.00309274 -1.39349 7.34964 162 160 134
0.0848475 -1.43946 7.58836 149 153 117
-0.518634 -0.923438 6.25538 166 160 144
-0.459917 -0.908396 6.25222 183 180 164
-0.440717 -0.918446 6.28014 124 121 98
-0.513446 -0.897014 6.22731 114 112 90
-0.40593 -0.887355 6.29182 116 115 86
0.247043 -1.15225 7.27175 171 174 142
-0.363556 -0.889153 6.36977 176 172 127
-0.406043 -0.794624 6.25764 116 114 90
-0.399289 -0.751115 6.12678 120 120 87
-0.25778 -0.803297 6.36981 166 164 126
0.345417 -1.02631 7.2739 176 178 144
-0.272819 -0.748572 6.32832 148 146 122
-0.212035 -0.740202 6.34132 133 131 98
0.597799 -0.890438 7.33932 222 223 185
-0.171292 -0.657065 6.36479 148 148 125
-0.211777 -0.602612 6.29758 149 146 118
0.533739 -0.735609 7.10682 161 170 128
0.444339 -0.671667 7.01807 164 168 122
-0.116161 -0.516894 6.34597 160 158 132
0.526375 -0.529827 6.94423 171 174 130
0.535603 -0.483927 6.85027 130 134 88
0.213544 -0.439197 6.69496 196 198 157
0.0946797 -0.331822 6.43324 168 167 140
0.202564 -0.342103 6.57477 162 160 137
0.300472 -0.369176 6.75302 196 197 157
0.302045 -0.25062 6.62963 154 155 134
0.896377 -0.346103 7.45416 176 176 126
0.260907 -0.150127 6.50417 182 179 158
0.437715 -0.171551 6.71441 150 152 124
0.479864 -0.135102 6.7048 150 150 120
0.969459 -0.146912 6.90788 232 236 192
0.548039 -0.125487 6.75411 166 166 133
-0.224991 -0.086094 7.09838 194 192 148
2.13106 -0.0873991 7.34727 128 125 85
0.569299 -0.0309368 6.72633 164 164 134
-0.0965983 -0.049573 7.09134 155 157 112
2.15253 -0.0634547 7.38227 208 207 172
0.775676 0.00669711 6.82661 229 232 194
2.16037 -0.030575 7.34981 120 104 68
2.12504 0.0237058 7.41781 167 154 122
0.102588 0.0347797 7.17012 200 203 162
2.07575 0.0512137 7.35319 146 148 113
2.20251 0.062569 7.13464 199 181 150
-0.0683459 0.0949434 6.98771 89 76 50
-0.037728 0.107074 6.97787 148 127 98
-0.115702 0.111164 7.02177 181 166 120
2.20127 0.144988 7.1221 168 134 104
0.113177 0.193422 7.04745 210 207 176
0.0588671 0.315293 7.46546 160 138 99
1.76549 0.379113 7.36133 68 54 33
0.135786 0.468782 6.49427 150 105 80
1.94393 0.534718 7.20697 110 76 50
1.93634 0.548962 7.17645 163 148 131
1.90396 0.556338 7.21697 150 122 100
0.654841 0.524144 6.19771 120 126 110
1.90335 0.579503 7.19315 92 65 47
1.93515 0.582265 7.07617 99 74 54
1.98648 0.61468 6.98201 192 151 133
1.88148 0.626724 7.03125 80 50 24
1.88619 0.694071 6.94814 127 86 65
1.65338 0.694051 6.7071 36 25 12
1.88287 0.740435 6.91927 108 76 56
0.895037 0.671326 5.80225 144 141 112
0.388618 0.79908 6.64444 194 184 184
1.20773 0.790468 6.40493 50 36 24
0.354398 0.810809 6.61345 129 102 82
1.17542 0.808673 6.52452 63 52 41
0.963462 0.734322 5.72005 136 142 107
1.84706 0.822167 6.44087 230 220 207
0.910272 0.772821 5.87815 42 36 14
1.24641 0.862634 6.37063 54 27 19
0.258774 0.891469 6.64152 210 164 131
1.29286 0.874259 6.23414 148 116 108
1.56338 0.891041 6.51004 176 153 140
1.63372 0.87962 6.37251 82 79 53
1.54666 0.911092 6.50197 89 62 41
0.775606 0.92174 6.4173 98 73 67
1.22152 0.923839 6.42679 130 104 97
1.19709 0.941389 6.40541 64 36 28
1.58308 0.961702 6.51924 172 136 126
0.393772 1.00625 6.61736 134 93 76
0.413888 1.02958 6.7296 72 32 17
0.176273 1.12928 7.38067 94 57 38
0.576397 1.01922 6.46408 187 146 130
1.19118 1.01856 6.35733 128 88 78
1.84133 1.11533 7.04236 209 192 185
0.729348 1.04231 6.43787 114 70 54
1.79452 1.13824 7.0199 114 82 77
1.55914 1.08544 6.65414 163 134 133
2.058 1.03068 6.17356 181 176 152
1.1729 1.07134 6.32389 147 110 102
1.48712 1.12454 6.66206 76 40 36
1.20121 1.12424 6.4913 84 50 46
0.916151 1.13063 6.48734 172 130 126
0.245586 1.27173 7.31852 66 23 10
0.166463 1.29377 7.42265 200 179 157
0.230776 1.35117 7.3891 186 161 148
2.12604 1.13187 6.1339 203 197 177
0.212665 1.35345 7.35255 197 184 162
0.638489 1.26108 6.75022 82 41 29
0.874317 1.26392 6.64518 142 105 102
1.45915 1.28037 6.68416 188 155 154
1.55249 1.32607 6.86683 60 32 28
1.73716 1.42598 7.26455 87 56 52
0.76567 1.38882 6.8242 70 34 28
1.36448 1.43685 6.81758 96 60 58
0.423134 1.60585 7.35 86 36 18
0.820113 1.50188 6.81943 90 48 38
1.49146 1.53913 6.97672 186 164 164
1.50675 1.58689 7.03344 82 53 53
2.13731 1.46748 6.28011 234 220 210
2.14902 1.49425 6.28972 111 81 64
1.44707 1.75005 7.12037 170 144 140
0.863518 1.98236 7.34878 161 132 130
0.0669692 -1.47604 7.45044 188 188 144
-0.556628 -0.978396 6.18875 122 119 98
0.0699024 -1.2722 7.22575 156 156 122
-0.440841 -0.9193 6.28069 126 124 102
-0.407575 -0.893172 6.3049 114 114 82
-0.321559 -0.833102 6.186 174 171 126
-0.380798 -0.796096 6.26203 168 162 140
-0.26032 -0.808626 6.39399 144 142 104
0.34589 -0.99806 7.15572 177 180 146
0.529283 -0.923425 7.16007 202 206 163
-0.148542 -0.71314 6.43383 214 212 174
0.595125 -0.861912 7.2133 223 226 184
0.619103 -0.774856 7.04157 184 190 150
-0.204762 -0.594154 6.26014 149 146 118
0.53095 -0.742004 7.13275 162 172 130
1.13509 -0.591096 6.90381 84 92 48
0.504723 -0.541698 6.90201 122 126 83
0.67815 -0.473961 6.95031 171 176 142
0.0965724 -0.330443 6.42278 176 174 148
0.183439 -0.238544 6.4698 163 160 137
0.874222 -0.0676856 6.33814 182 180 134
0.344766 -0.0635773 6.57828 168 166 140
-0.0954352 -0.0500975 7.08561 170 170 126
0.586032 -0.0173133 6.77574 172 172 143
2.17992 -0.0310404 7.30927 184 176 140
0.773627 0.00983092 6.80501 231 233 196
2.1745 0.0408664 7.21792 126 96 59
0.137401 0.0496605 7.10719 162 165 123
2.15497 0.0359712 7.4317 116 95 66
2.07022 0.0566863 7.34173 181 183 148
2.12922 0.0641573 7.34064 202 193 160
-0.033651 0.112885 6.93703 162 138 108
2.21693 0.10498 7.17113 228 214 188
0.232276 0.286127 7.13113 154 137 104
1.94314 0.458149 7.26414 138 104 64
1.94445 0.531237 7.2008 115 79 52
1.88797 0.557104 7.15782 160 134 110
1.95275 0.584078 7.1307 106 78 56
1.83635 0.592045 6.91271 84 54 35
0.619106 0.574945 6.16002 120 124 115
1.94906 0.653775 6.97188 142 101 79
1.89117 0.694275 6.91931 136 96 74
1.8467 0.719186 6.98633 77 44 24
0.620163 0.606535 4.38881 103 91 76
0.351773 0.810153 6.59487 132 103 80
0.960744 0.729866 5.73599 132 139 104
1.83989 0.816996 6.42349 227 215 204
1.30044 0.824226 6.2747 100 78 70
0.276277 0.74959 5.49013 184 156 134
0.331145 0.874414 6.66641 116 74 50
1.22311 0.85429 6.24998 39 16 9
1.55474 0.888117 6.61973 44 29 15
1.25502 0.860578 6.27538 174 136 130
1.29766 0.86323 6.23935 150 118 113
1.56482 0.893318 6.51356 180 160 145
1.61351 0.89208 6.42708 174 158 147
1.91123 0.877287 6.34419 230 227 212
1.4871 0.91627 6.49243 190 148 126
1.55324 0.919728 6.5589 104 72 50
0.767275 0.916372 6.44425 122 96 86
0.184762 1.05607 7.15584 174 136 117
0.368481 1.0203 6.71247 96 58 42
1.78864 0.970598 6.29261 75 74 52
1.80035 0.974121 6.25829 112 112 84
0.593775 1.00365 6.43795 191 152 134
0.625916 1.00655 6.46223 129 79 56
0.561827 1.01615 6.48275 194 152 134
1.46784 1.03213 6.51938 72 40 30
1.82342 1.10832 6.99206 168 146 140
0.72822 1.05052 6.50123 114 70 53
0.155632 1.22312 7.42477 196 159 134
0.125352 1.23464 7.43691 166 136 108
1.18054 1.08308 6.37978 136 98 90
0.181819 1.23939 7.34333 74 37 20
0.233924 1.28104 7.4289 62 21 7
0.75885 1.15323 6.58709 160 135 131
0.163557 1.30484 7.4559 212 194 172
0.77912 1.14178 6.36169 61 28 22
0.188402 1.32865 7.3951 62 34 16
1.51064 1.2236 6.71682 62 37 32
1.45951 1.28183 6.69909 173 140 138
0.641354 1.30755 6.7198 158 118 104
1.73104 1.49323 7.2017 140 112 110
1.51111 1.42663 6.83834 114 76 73
1.52222 1.59415 7.08712 85 54 53
0.826677 1.58198 6.8825 79 46 40
2.19698 1.42685 6.10908 224 216 211
1.44907 1.74284 7.11823 160 130 128
0.836092 1.80453 7.20178 162 139 139
0.0520832 -1.52421 7.58866 182 181 139
-0.579261 -0.968983 6.23222 106 104 84
0.11535 -1.241 7.40999 158 158 124
0.251141 -1.1432 7.24772 178 178 148
-0.361534 -0.884548 6.35641 164 160 117
-0.457316 -0.825927 6.31471 108 110 83
0.52303 -0.91425 7.14406 160 166 123
-0.279069 -0.690281 6.26828 160 156 133
-0.335642 -0.706748 6.35592 114 110 78
-0.0242098 -0.535102 6.4212 160 158 138
0.630387 -0.536878 6.96091 174 180 142
0.677092 -0.518759 7.16806 162 168 135
0.0855598 -0.338274 6.45163 151 150 124
0.29016 -0.36502 6.74538 151 150 120
0.17786 -0.242239 6.51604 169 165 142
0.308731 -0.241364 6.64356 162 161 140
0.864424 -0.231936 6.84892 168 168 118
0.253543 -0.161361 6.56948 179 176 154
1.28195 -0.193383 7.16703 94 103 82
0.961875 -0.15293 6.8864 232 238 196
-0.452596 -0.111556 7.06179 178 176 129
2.03167 -0.0809262 7.44835 219 227 190
0.577772 -0.0216338 6.77817 152 150 122
2.18901 -0.0374736 7.38604 174 156 120
2.21619 0.0511941 7.20224 202 182 154
1.08195 0.0928063 6.64579 125 127 88
2.07502 0.0497843 7.38877 174 178 141
-0.110108 0.0757906 7.03583 218 216 176
-0.0638714 0.0954859 6.94687 100 86 60
0.0137556 0.156485 6.83703 172 144 117
2.18889 0.159678 7.07721 168 130 102
0.750462 0.235084 6.81264 165 169 146
0.0804103 0.270205 7.42002 122 86 59
0.20234 0.469565 6.2236 145 118 90
1.06683 0.485798 5.94569 133 132 113
1.93218 0.577397 7.06737 110 86 70
1.87215 0.588882 7.08701 92 62 42
1.95649 0.663392 7.03365 138 98 75
1.6227 0.6833 6.696 72 62 44
1.73112 0.732523 6.68788 121 117 92
0.959445 0.728428 5.72446 124 132 96
0.404104 0.821762 6.62898 76 55 43
1.83963 0.821326 6.35339 209 201 184
1.29523 0.822462 6.29444 80 57 44
1.88399 0.848606 6.44113 180 180 158
1.16576 0.866536 6.44532 32 22 16
1.62406 0.894743 6.48508 148 134 122
1.5009 0.914316 6.55179 174 134 112
0.754321 0.911197 6.28692 132 113 100
0.774722 0.890126 6.02003 82 44 35
1.92026 0.900794 6.25116 175 172 152
1.22524 0.943778 6.46047 125 106 100
1.23164 0.938057 6.33638 81 39 29
1.14249 0.937397 6.33457 116 100 86
1.57557 0.956896 6.49171 189 154 144
0.572266 0.97115 6.48112 136 92 72
0.620139 1.00744 6.45573 120 72 50
1.471 1.03207 6.54992 101 67 56
1.81725 1.10947 6.96071 173 155 148
0.767844 1.0377 6.40005 156 110 94
1.54917 1.08291 6.64878 138 100 100
0.123143 1.23192 7.43868 179 153 124
1.49685 1.12184 6.69122 100 63 60
0.881235 1.08037 6.06208 160 120 113
1.15145 1.06753 6.12037 96 58 50
0.238517 1.28338 7.38595 56 14 2
0.783437 1.16696 6.55598 61 29 22
1.5681 1.20597 6.75151 112 80 72
0.17834 1.33412 7.4223 138 120 99
1.32531 1.21777 6.67521 98 60 52
1.4961 1.22399 6.69138 70 47 46
0.799751 1.29384 6.71459 37 16 12
1.35228 1.30411 6.66089 104 69 66
0.420405 1.62045 7.41753 86 36 18
1.4831 1.55703 6.99207 160 140 141
1.54356 1.61743 7.20584 92 57 56
0.805529 1.59422 6.97505 157 131 132
0.830344 1.5948 6.92792 79 46 41
2.11497 1.47042 6.30868 178 156 142
2.19709 1.47985 6.26172 122 88 69
-0.429304 -0.806558 6.26796 105 106 82
-0.376722 -0.790713 6.26229 174 164 142
-0.265764 -0.811371 6.40189 163 160 124
-0.235668 -0.773638 6.36581 206 204 166
-0.29978 -0.661491 6.17938 130 125 92
-0.274834 -0.666289 6.31651 109 108 80
-0.0345584 -0.543553 6.44527 148 146 125
0.677179 -0.478849 6.97633 180 184 152
0.292499 -0.36173 6.71308 170 170 135
0.187636 -0.221214 6.39323 168 164 140
0.416935 -0.150005 6.69796 156 156 134
0.952442 -0.149341 6.80905 230 237 194
0.57298 -0.0240497 6.78551 146 144 116
0.759615 0.000257034 6.77466 229 236 196
2.13848 -0.0149145 7.36962 100 80 46
2.16711 0.00531434 7.28198 187 157 126
2.21834 0.025885 7.36454 130 100 64
2.22405 0.0489726 7.24924 208 184 157
2.11758 0.0904931 7.24786 227 230 190
-0.0518821 0.102384 7.06896 164 139 108
2.19875 0.107075 7.13151 218 200 176
-0.127355 0.115795 7.04564 218 215 172
0.0880662 0.1961 7.39011 225 222 186
1.85458 0.297988 7.40869 204 206 166
0.88367 0.364467 7.24079 92 95 70
1.73555 0.395528 7.23348 50 28 12
0.269398 0.53043 5.86471 125 105 82
0.270239 0.550296 5.87911 80 62 40
1.8575 0.624432 6.98204 66 36 16
1.63954 0.688138 6.76213 98 90 72
1.88837 0.700275 6.96524 113 72 50
2.00272 0.76045 6.92075 188 143 124
0.270547 0.709582 6.13517 146 132 118
1.85276 0.839514 6.33395 200 199 178
1.29878 0.873637 6.33333 130 96 82
1.62847 0.898791 6.50541 177 156 150
1.2307 0.873229 6.16425 140 100 90
0.754578 0.916421 6.45947 98 68 56
0.714954 0.911023 6.31698 88 46 30
1.17513 0.935806 6.31992 65 32 25
0.345418 1.00735 6.63593 128 91 75
1.77995 1.02975 6.73682 136 108 100
1.2188 0.969954 6.24525 233 205 203
1.16951 1.04678 6.33533 200 168 156
0.164469 1.20161 7.29532 160 122 98
1.79141 1.15357 6.95012 145 118 114
0.752019 1.14467 6.52437 144 116 112
0.90458 1.11536 6.35182 145 104 98
0.787269 1.16774 6.52528 64 32 24
0.518291 1.2507 6.80191 78 34 20
0.211032 1.37222 7.44881 204 192 170
0.806517 1.29438 6.70546 36 16 12
1.55332 1.31566 6.8198 56 24 16
0.822629 1.42624 6.9449 59 28 24
1.65339 1.57578 7.27025 98 60 58
1.47859 1.5478 6.97396 128 104 104
1.51534 1.5714 7.02459 98 60 60
2.11188 1.46863 6.29527 152 122 108
2.14688 1.46292 6.27285 223 216 213
2.13964 1.44809 6.10275 122 88 67
2.13373 1.49173 6.26528 214 194 183
0.226673 -1.19946 7.42451 139 141 109
-0.276205 -0.819143 6.41781 170 167 132
-0.253499 -0.796353 6.45353 172 170 136
-0.187891 -0.755403 6.47802 184 184 139
-0.28449 -0.643474 6.11944 120 115 84
-0.27794 -0.663285 6.36328 105 106 78
0.19452 -0.43965 6.70464 150 151 121
0.083115 -0.33392 6.42871 146 144 119
-0.454883 -0.116829 7.05118 212 212 162
2.18035 -0.0822161 7.46426 169 172 136
2.16906 0.0427808 7.25105 172 138 110
-0.128835 0.062253 7.09356 214 214 174
2.06367 0.0655338 7.33742 190 195 158
2.10823 0.0929895 7.24703 222 232 191
2.18985 0.108208 7.1114 218 196 172
1.9486 0.468391 7.60014 68 35 16
1.18228 0.519816 6.881 102 96 77
1.90629 0.54634 7.24941 116 88 63
1.59658 0.682262 6.59019 70 59 42
1.82446 0.703504 6.96742 96 63 45
1.44185 0.869976 6.51408 130 84 67
1.29033 0.858917 6.25559 128 90 78
1.54914 0.881515 6.49451 118 97 82
1.61592 0.893951 6.4836 134 117 106
1.53765 0.910325 6.50623 120 85 62
1.69512 0.941847 6.65153 201 184 184
1.74112 1.32273 7.03372 186 162 157
0.22079 1.4341 7.47415 144 120 100
1.72164 1.36769 7.10179 102 72 70
1.45314 1.44677 6.82374 96 61 56
1.48155 1.54437 6.99159 118 92 90
0.843126 1.60916 6.95437 86 42 36
2.12534 1.45085 6.22739 226 218 212
2.33373 1.51977 6.5206 162 142 132
2.22602 1.42524 6.10807 183 135 104
2.11376 1.46305 6.28829 156 128 113
-0.337394 -0.735319 6.11287 180 170 150
1.27604 -0.882963 7.05558 180 185 142
1.2054 -0.32157 6.69544 140 144 108
0.749259 -0.0384943 7.01402 224 236 194
2.18346 0.0419307 7.30706 175 140 112
-0.123882 0.0706657 7.03207 217 217 177
-0.0869322 0.0891312 7.02268 156 140 110
2.15562 0.115312 7.34632 223 232 192
0.00487246 0.24596 7.38119 216 200 163
0.06645 0.246137 7.37195 104 69 42
1.92891 0.411743 7.38842 120 87 56
1.89532 0.47767 7.32804 74 42 20
1.98892 0.523102 7.10126 164 120 98
1.89613 0.647504 6.98017 188 148 126
1.77544 0.685648 6.70633 109 70 55
1.38095 0.849971 6.62969 31 22 12
1.46932 0.83809 6.33009 50 31 19
1.24186 0.854921 6.19871 174 136 128
1.81843 1.03988 7.04138 142 107 103
1.24189 0.977872 6.42462 222 192 186
0.403094 1.03478 6.75184 74 37 21
0.917715 1.13655 6.61822 130 84 77
0.455661 1.21927 6.81359 60 26 14
0.818492 1.28578 6.69136 51 24 21
0.820546 1.3962 6.72725 50 24 20
0.788148 1.54761 6.78268 101 66 60
2.10054 1.4582 6.25058 156 124 109
2.18813 1.46387 6.23072 196 180 172
-0.87437 -1.23217 6.08708 101 93 50
1.86946 -1.62188 7.25878 134 138 94
0.0693612 -1.47087 7.43611 154 154 112
2.82575 -0.974597 6.46513 128 127 104
-0.439934 -0.922484 6.28318 94 90 66
-0.453666 -0.906115 6.25259 153 152 131
-0.228377 -0.74892 6.38945 129 132 109
-0.322207 -0.697787 6.30621 90 86 60
-0.0893425 -0.67417 6.4691 172 174 132
0.282136 -0.381209 6.75546 200 200 162
0.2073 -0.336754 6.57679 126 126 106
0.315479 -0.235396 6.64572 138 136 116
0.465318 -0.222087 6.72951 174 176 136
2.26572 -0.267982 7.36237 130 130 93
0.415113 -0.15402 6.69057 136 134 112
-0.740942 0.0289202 7.11858 140 120 70
0.172867 0.0729506 6.58028 122 124 84
0.218878 0.0959535 7.17974 180 182 139
0.0176026 0.244294 7.37433 206 177 137
1.83454 0.731919 6.8801 88 58 40
1.81849 0.726801 6.94062 50 26 12
1.85692 0.746351 6.86505 200 179 168
1.87306 0.762201 6.86892 223 210 201
1.92317 0.774576 6.83625 160 130 102
1.88348 0.781221 6.81394 86 62 34
0.35559 0.81517 6.6214 114 88 72
0.419328 0.839373 6.69441 60 43 40
0.4485 0.847739 6.67465 68 37 28
0.259357 0.863584 6.69928 126 81 50
1.64178 0.892853 6.48654 98 88 72
1.64102 0.907809 6.53569 168 148 142
1.25164 0.878684 6.26472 150 113 104
0.481232 0.949551 6.49952 148 106 84
0.354782 1.00611 6.66478 136 100 86
1.68531 1.05182 6.77936 94 60 56
2.05154 1.02559 6.17889 200 196 176
0.777744 1.15308 6.55669 70 29 24
1.94398 1.09103 6.13268 102 103 85
0.187639 1.32031 7.34375 58 36 20
2.01558 1.17255 6.06259 110 108 90
0.754528 1.29416 6.65802 50 21 14
2.23336 1.43421 6.12498 112 72 51
0.525037 1.80169 7.41168 78 34 22
0.510876 1.7973 7.37914 150 116 106
-0.875857 -1.23227 6.089 110 102 59
1.86724 -1.62087 7.24746 123 128 89
-0.666083 -1.10912 6.14799 154 152 104
-0.000425034 -1.38453 7.32121 138 138 104
2.89104 -1.07144 6.45614 116 118 92
0.158862 -1.37303 7.40101 177 178 138
-0.557128 -0.965046 6.19212 114 114 93
2.74037 -0.973715 6.56225 120 121 80
0.0213484 -0.594265 6.5672 150 152 119
-0.0224996 -0.534266 6.43565 126 127 108
0.315537 -0.235983 6.6412 139 138 117
-0.485828 -0.122821 7.12361 186 184 138
-0.227147 -0.0851738 7.10922 130 131 86
2.19453 0.145777 7.11193 150 114 88
0.030514 0.188865 6.78641 109 81 60
0.00947483 0.241957 7.4046 196 172 132
2.17639 0.259996 7.03844 188 155 140
1.92541 0.49192 7.35444 82 55 32
1.89257 0.692331 6.93567 122 82 56
1.85197 0.743996 6.86787 185 160 146
1.86694 0.77386 6.92864 95 70 49
1.28495 0.81101 6.32723 52 31 22
1.56506 0.893411 6.5181 140 118 101
1.81619 1.04729 6.99859 76 49 42
0.619093 1.00794 6.47635 118 70 49
0.761269 1.04771 6.47027 121 83 68
0.72958 1.06759 6.49848 52 16 8
0.20179 1.32024 7.39537 131 102 84
0.474345 1.61672 7.29686 144 110 99
1.51525 1.59263 7.08384 68 38 36
1.45091 1.7509 7.12756 150 127 126
1.44433 1.80261 7.23488 70 38 34
1.86862 -1.62034 7.25216 128 134 92
-0.665472 -1.10721 6.14375 150 150 102
-0.550142 -0.953716 6.18171 148 146 126
-0.385233 -0.795314 6.26224 136 136 112
-0.1753 -0.74822 6.46477 138 142 98
-0.154859 -0.720532 6.4676 171 171 132
-0.0765504 -0.677514 6.51933 141 144 100
0.183318 -0.233618 6.4804 154 150 128
0.51252 -0.075618 6.73865 136 135 108
0.592095 -0.0147107 6.78174 138 138 106
-0.093022 0.079382 7.00456 194 184 151
0.0388059 0.189851 6.76039 106 80 58
1.82649 0.310717 7.24664 184 186 152
1.92343 0.489994 7.3296 76 48 23
1.95461 0.654363 7.00684 128 84 64
1.88907 0.77049 6.80338 112 84 50
0.956652 0.77823 5.68148 110 117 82
1.55118 0.889294 6.58334 38 24 10
0.595521 1.00509 6.47114 173 130 112
0.625761 1.00217 6.43613 106 56 36
1.54479 1.02973 6.60473 86 54 47
0.773581 1.07975 6.4865 49 17 12
0.776391 1.14777 6.54337 83 44 36
0.74217 1.16168 6.54152 56 22 14
1.55848 1.21374 6.79171 89 58 56
2.10917 1.47005 6.29277 146 118 106
1.61867 1.7737 7.43791 111 69 66
0.46721 1.78148 7.41622 64 19 6
-0.446468 -0.944472 6.30506 164 160 115
-0.512353 -0.896438 6.22153 86 86 58
2.7263 -0.953495 6.58009 206 205 166
-0.406557 -0.790295 6.26083 90 90 67
-0.275679 -0.752792 6.34035 112 112 92
-0.213824 -0.752739 6.38679 98 98 60
0.514568 -0.0769776 6.72666 136 135 108
2.20911 -0.013579 7.36602 204 195 160
0.109143 0.0393689 7.10317 188 192 150
-0.070704 0.089289 7.01464 64 56 30
1.85112 0.753273 6.98835 144 121 108
1.89974 0.785911 7.18847 138 110 88
1.88843 0.779022 6.8287 98 71 42
1.57807 1.08008 6.65436 72 47 45
1.52197 1.10923 6.64228 36 16 10
1.53952 1.20998 6.76638 117 83 82
2.75528 -0.982088 6.59966 148 148 108
-0.40444 -0.884367 6.28743 85 86 58
-0.380443 -0.793459 6.25723 140 138 114
-0.215459 -0.75209 6.40205 98 99 64
0.118742 -0.517523 6.63017 166 166 125
0.341757 -0.0622504 6.56856 128 126 104
0.0284519 -0.00711274 7.10882 193 197 151
1.86072 0.405127 7.39452 118 100 70
1.93802 0.518186 7.42749 106 79 51
2.02252 0.75609 7.00026 172 126 107
0.452331 0.845073 6.68705 56 27 21
1.24884 0.85702 6.22608 136 102 92
1.55191 0.894075 6.49728 80 61 46
0.561986 1.02148 6.57911 172 132 112
0.174143 1.2554 7.40061 56 24 10
2.24134 1.43909 6.14411 114 72 50
0.475996 1.77838 7.39847 70 26 15
0.499113 1.79093 7.40483 110 72 60
-0.569057 -0.990966 6.20499 92 91 72
-0.171086 -0.739299 6.44547 108 112 76
-0.147359 -0.712939 6.44286 180 179 138
1.89517 0.663002 7.02975 158 113 86
1.81218 0.77742 6.80654 130 108 88
0.96048 0.73165 5.69962 119 122 88
1.98695 0.953981 6.2362 92 92 64
0.723998 1.17381 6.64534 54 22 12
2.19705 1.43467 6.14998 200 194 188
0.469053 1.79025 7.43065 55 13 2
-0.604648 -1.05503 6.21143 126 127 87
-0.44187 -0.811251 6.30564 83 84 62
2.18479 -0.0393385 7.3594 154 135 100
2.21652 0.0495365 7.25196 174 145 114
-0.0647045 0.100376 6.93664 120 102 74
1.86289 0.297577 7.35529 195 200 163
1.89171 0.391733 7.54514 132 115 86
1.87684 0.610164 7.06626 60 34 17
1.95429 0.670293 7.00581 127 88 62
2.02233 0.752788 7.03702 162 114 94
1.88013 0.813307 6.74631 180 154 136
1.25609 0.871503 6.32911 122 87 78
0.571441 0.99126 6.33674 169 126 106
1.60153 1.09244 6.73921 40 20 14
2.0714 0.0565098 7.37357 85 89 53
1.82036 0.727846 6.81867 157 130 116
1.66242 1.06146 6.82877 114 82 80
2.21842 1.41789 6.11038 164 122 93
-0.0629349 -0.654374 6.41566 144 146 104
0.439446 -0.135322 6.69185 123 124 98
-0.425126 -0.110147 7.01982 143 142 92
1.87792 0.684355 6.97082 154 109 86
1.87614 0.712333 6.91885 150 110 90
0.899967 0.80359 5.69469 141 122 97
2.12154 1.11762 6.14121 144 139 123
-0.445849 -0.919415 6.28198 98 96 78
-0.314463 -0.786781 6.31749 114 116 94
-0.168933 -0.725465 6.44769 117 118 90
-0.122306 -0.519736 6.36356 128 124 96
2.15495 -0.0574939 7.36949 185 185 146
1.64234 0.893355 6.43247 130 114 98
1.53802 1.09939 6.69149 61 30 26
2.11699 1.11697 6.15904 122 119 98
1.07524 1.00905 5.47449 82 68 55
1.71512 1.94343 9.78906 87 58 56
-0.272469 -0.696902 6.3068 120 118 94
1.2788 0.26065 6.82247 108 110 100
1.82158 0.733749 6.87499 114 88 72
1.25637 0.926724 6.35115 54 21 12
2.07076 1.04667 6.16985 196 192 179
1.53148 1.21212 6.78027 100 70 66
-0.32331 -0.695121 6.31455 88 84 54
0.0372532 -0.00449837 7.09696 168 172 126
0.89799 0.679201 5.83958 114 113 82
1.59241 0.893983 6.51665 47 39 18
1.25161 0.868944 6.25197 134 99 88
-0.0826548 -0.671223 6.50786 102 104 68
1.95033 0.359936 7.57281 102 72 42
1.8866 0.699879 6.93234 122 81 58
1.8915 0.76345 6.95997 127 105 96
1.84713 0.77608 6.75204 72 50 31
0.581239 1.01462 6.51441 172 130 112
-0.57072 -0.955062 6.17716 73 75 54
0.254439 -1.12634 7.19282 135 138 106
-0.110112 0.0679355 7.01011 160 158 121
1.94546 0.437536 7.12171 149 131 108
1.8087 0.756004 7.00236 88 74 54
1.4979 0.914709 6.5388 149 106 82
2.10707 0.0309978 7.31918 126 112 84
1.32967 0.239321 6.90183 50 34 24
0.571053 0.973178 6.49202 113 70 47
2.13687 1.44205 6.14562 136 116 104
0.296896 -0.372806 6.7624 155 156 115
0.695956 0.0251535 10.0257 115 120 106
0.27191 0.389549 7.3836 170 158 132
1.9705 0.598324 7.48656 116 78 61
1.95643 0.638017 6.98684 174 128 104
0.272176 0.383281 7.38096 102 90 68
1.07114 0.493026 5.93078 152 158 134
1.36694 0.618728 5.236 33 26 12
2.14781 1.47878 6.29478 194 178 169
0.178684 -0.364234 6.55684 114 115 93
2.21239 -0.0452397 7.41291 154 144 110
1.5516 0.669111 6.86302 71 60 45
1.25497 0.874404 6.2619 138 104 98
2.13464 -0.0153051 7.27052 96 80 44
1.9417 0.430196 6.85375 172 158 134
0.188421 -0.348297 6.58426 118 117 96
1.41643 0.171939 6.87738 154 151 124
1.34997 0.224465 6.90935 72 54 42
1.82301 0.716453 6.93225 64 34 22
1.34849 0.232719 6.88818 52 34 24
1.5053 1.12228 6.70048 49 20 17
2.0913 0.08354 7.27849 186 191 154
1.31057 0.754896 6.21696 48 35 23
2.1773 0.0419882 7.24452 126 91 58
2.72684 -0.916057 6.5381 75 76 44
1.2739 0.805756 6.37799 88 64 56
1.05617 0.846395 5.62181 142 139 118
2.73557 -0.922166 6.47367 124 124 80
1.53548 0.663977 6.96253 43 36 24
1.24991 0.929303 6.30583 58 22 14
2.05013 -0.597421 6.44094 170 175 128
2.62395 -0.909373 6.59392 181 185 136
2.50869 -0.86668 6.61581 188 191 142
1.54881 0.67243 6.93379 68 64 50
0.843173 1.9613 7.23379 92 52 45
2.76361 -0.993882 6.57136 180 184 138
2.74362 -0.976699 6.56817 123 126 84
-0.429258 -0.896681 6.2663 102 103 84
2.64922 -0.912901 6.59149 191 190 146
2.6257 -0.907619 6.59544 136 137 94
2.61815 -0.91112 6.5992 185 187 142
1.68989 0.730903 6.68374 34 26 16
1.37057 0.650284 5.1301 148 129 108
0.262535 0.884957 6.52965 174 151 126
-0.164586 1.14466 12.5927 100 92 78
1.42845 0.980162 6.12884 70 30 18
0.614634 -0.305341 5.56822 117 122 95
2.62453 -0.906463 6.59819 146 146 102
0.37144 0.125324 7.45168 175 177 141
1.35382 0.213613 6.97364 127 119 100
0.203713 0.917551 7.20349 184 136 105
1.31688 1.0727 7.26344 170 133 128
1.08846 0.76326 10.4373 70 56 46
0.67522 -0.475311 6.94779 145 152 118
-0.765758 0.0291609 7.12785 130 110 61
1.07608 0.498596 5.9808 53 55 32
0.916605 1.13227 6.47157 174 134 124
-0.888769 -1.25923 6.11534 130 124 79
-0.59952 -0.0518974 7.04023 77 68 30
-0.766228 0.0265834 7.12995 126 104 56
-0.744373 0.0286351 7.11822 140 118 70
-0.56268 -0.977463 6.20668 90 89 69
-0.554041 -0.929437 6.19763 83 78 54
0.291676 0.510023 7.23548 116 110 80
-0.135716 -0.571588 6.36604 124 121 99
2.15595 0.120964 7.31559 182 167 134
1.87682 0.721277 6.96483 138 100 73
1.87894 0.739513 6.9749 131 99 79
1.59202 0.893582 6.57339 59 46 24
0.222578 -1.29764 7.35884 146 149 106
0.270236 -1.10167 7.14398 144 150 115
-0.16894 -0.739141 6.43787 121 124 82
-0.0806916 -0.682981 6.53142 150 150 106
0.296189 -0.36966 6.7612 162 162 122
0.469829 -0.231552 6.8199 167 170 128
1.30472 -0.292036 7.24224 136 143 102
2.19586 -0.0381036 7.36653 156 141 106
1.0803 0.220085 6.32899 62 69 44
1.3267 0.224718 7.23537 102 94 84
0.154514 0.409039 7.30094 148 128 108
0.587195 0.533565 6.0299 120 122 104
2.06463 0.56654 7.10869 163 156 132
0.138471 0.684478 5.59312 179 179 145
0.893344 0.669529 5.79685 140 136 111
0.12508 0.704665 5.55513 188 186 158
0.117962 0.712603 5.55242 130 130 96
0.992727 0.722463 5.72438 117 128 90
0.283488 0.753867 6.6981 104 76 64
1.91088 0.771802 6.77585 162 132 104
0.901538 0.781053 5.77024 42 38 17
1.90212 0.78058 6.90258 88 64 28
1.2107 0.7944 6.44955 28 12 4
1.30161 0.824757 6.26984 128 108 102
1.24162 0.865315 6.2922 58 28 16
1.25166 0.880512 6.25478 155 120 112
1.65432 0.897977 6.57608 144 130 119
1.25151 0.905828 6.21709 112 76 66
0.365031 0.952104 6.73334 124 82 64
0.904796 0.907383 5.59265 178 154 128
1.99694 0.951621 6.26851 130 130 106
0.574107 1.01981 6.4128 150 105 85
1.55078 1.0245 6.59485 58 30 25
1.8615 1.11477 7.11585 192 180 169
1.55838 1.09672 6.65135 135 112 110
1.57153 1.10795 6.67044 48 26 24
1.76872 1.14387 6.96044 70 42 38
1.30434 1.18163 7.38017 40 16 12
2.11707 1.11468 6.14107 130 125 98
1.77842 1.24628 7.14065 150 126 120
1.71519 1.41992 7.18817 71 40 36
1.69499 1.54929 7.30307 136 102 98
1.68072 1.57572 7.30814 61 32 29
2.21076 1.4517 6.14028 93 63 43
1.28771 1.63533 6.89585 151 112 112
1.42136 1.9136 7.25139 149 120 118
1.4033 1.93766 7.29006 76 46 42
1.41463 1.94585 7.2809 142 117 115
1.3132 2.08776 7.32509 138 106 106
1.27833 2.11011 7.34474 78 48 43
1.12849 2.13406 7.36365 101 58 48
1.33027 2.1365 7.40757 151 118 116
1.252 2.13286 7.32662 132 108 105
1.16251 2.15259 7.29682 114 76 66
-0.446517 -0.925513 6.29315 109 106 84
2.73747 -0.966915 6.52832 194 195 151
2.77109 -1.00256 6.64991 116 116 76
1.67869 -0.224239 5.44334 138 132 108
0.607012 -0.389334 6.89772 150 154 112
-0.589722 -0.0469593 7.02055 85 74 39
0.0482229 0.0139845 6.96372 188 190 142
0.0502785 0.0102318 7.11192 180 183 143
2.14916 -0.0259531 7.29947 126 117 80
-0.0342235 0.11262 6.92962 126 104 78
2.06547 0.34366 6.98032 179 140 120
2.10765 0.333555 7.01849 158 117 102
2.0125 0.497619 6.98584 145 103 81
2.05704 0.563759 7.05234 160 152 128
1.47282 0.616987 7.3557 36 32 18
1.88621 0.670813 6.94577 174 130 112
0.962789 0.722388 5.74558 120 126 90
1.8101 0.719905 6.87261 70 48 29
1.84391 0.720104 6.93319 78 50 32
0.0922969 0.755845 5.47834 156 153 127
1.30107 0.822801 6.25328 92 76 70
1.23883 0.866922 6.26993 44 18 8
0.741129 0.917785 6.4176 72 31 15
1.50128 0.912665 6.51323 150 113 90
0.389278 0.948594 6.6792 116 74 50
0.886562 0.876923 5.37833 82 46 32
0.905155 0.903882 5.61198 164 137 114
1.21737 0.941498 6.32654 122 102 96
1.20649 0.950049 6.43035 62 36 25
1.97968 0.936711 6.25766 198 198 180
2.00483 0.958545 6.25378 182 180 162
0.231858 1.04142 6.93176 118 78 56
0.905504 0.974132 5.60064 180 146 120
2.06575 1.04529 6.16456 171 168 148
0.757928 1.14465 6.53613 144 116 110
0.759084 1.1613 6.59243 141 118 112
1.95201 1.09371 6.16059 97 99 80
1.06993 1.08308 5.50165 112 114 96
1.55926 1.20566 6.76024 72 46 40
1.53806 1.20881 6.73278 114 84 82
0.643721 1.30712 6.70318 150 106 90
1.71238 1.41512 7.17801 92 59 56
1.69824 1.55585 7.33827 130 96 93
1.48074 1.57958 6.99239 138 118 118
1.50481 1.59449 7.06562 96 72 72
2.20399 1.43117 6.1189 208 194 184
2.19659 1.46547 6.24407 154 138 124
1.41515 1.9437 7.28748 126 100 98
1.11143 2.11205 7.3136 152 104 92
1.32933 2.13953 7.43308 154 124 122
1.24973 2.12998 7.3317 148 124 120
1.33634 2.15153 7.43384 132 100 98
-0.0025006 -1.52664 7.43725 152 150 112
0.236496 -1.25253 7.24427 128 134 92
2.74762 -0.974746 6.53542 195 194 150
2.75138 -0.985396 6.59824 115 115 74
2.72138 -0.879671 6.72333 192 188 153
0.464968 -0.237737 6.86112 146 149 110
0.560942 -0.161945 6.91117 178 181 136
0.592874 -0.0148587 6.76342 140 139 107
0.103209 0.0366496 7.15047 174 178 136
0.243475 0.318258 6.78097 125 102 70
0.621582 0.569238 6.17144 100 104 94
2.05976 0.562098 7.06392 150 145 116
0.896831 0.648259 5.84073 52 52 25
1.46307 0.613907 7.19814 30 23 10
0.121717 0.714252 5.53576 138 138 106
1.89214 0.689527 6.93493 110 73 50
0.990328 0.720236 5.73677 102 114 74
1.99815 0.714043 7.04998 144 92 68
1.86988 0.720352 6.95037 150 114 88
0.2853 0.754069 6.72048 110 82 72
1.23168 0.738456 6.48163 88 78 64
1.2704 0.799713 6.3097 124 100 85
0.447049 0.84031 6.72186 58 30 22
0.739406 0.916761 6.45958 71 28 13
0.877799 0.873964 5.33075 80 46 32
1.21786 0.938902 6.31198 125 106 98
1.24865 0.947073 6.4894 65 34 25
1.98896 0.948317 6.23575 147 146 124
0.903754 0.96951 5.57182 188 149 124
0.729083 1.06863 6.52671 54 18 8
1.53898 1.09476 6.68294 68 40 36
1.53878 1.20618 6.7367 116 88 86
1.74686 1.25455 7.07956 98 66 60
0.791837 1.29057 6.72646 35 12 9
1.72152 1.38726 7.17523 92 62 59
1.54309 1.46724 7.10959 107 77 76
1.48446 1.45244 6.88342 72 40 37
1.68003 1.5788 7.31467 57 29 26
2.1907 1.42359 6.07872 207 195 186
2.14063 1.46876 6.2919 198 179 164
2.20798 1.45655 6.14739 96 68 46
1.62197 1.76117 7.38122 70 39 34
1.45093 1.74692 7.10086 148 126 124
1.2391 2.02821 7.04063 120 88 80
0.148796 -1.36911 7.34525 166 170 129
2.72819 -0.967114 6.54561 162 162 120
-0.453835 -0.115939 7.08386 149 146 101
-0.590611 -0.0472982 7.02741 85 74 42
2.23612 0.0495104 7.24667 182 167 135
1.79809 0.335621 7.28767 118 101 66
0.40984 0.406543 7.16683 34 26 8
1.8553 0.401848 7.33173 106 81 50
0.567757 0.49505 6.91362 113 114 98
2.01961 0.502032 7.04601 136 96 72
0.893867 0.667822 5.80297 105 101 77
0.139257 0.690521 5.53282 191 190 163
0.120909 0.710978 5.5259 169 166 140
1.06329 0.711799 5.74521 140 146 123
1.77542 0.710649 6.90567 32 18 6
1.73706 0.764784 6.66798 94 88 69
1.9361 0.751839 7.20319 80 48 25
1.85983 0.774339 6.67618 107 83 54
0.400033 0.819951 6.67152 56 41 34
1.06681 0.811283 5.701 68 67 48
1.08799 0.845717 5.70578 67 46 40
1.25438 0.891493 6.25105 122 84 72
0.905309 0.903362 5.59686 170 145 120
0.905984 0.970596 5.57278 184 146 122
0.750011 1.05889 6.46619 164 140 132
0.907274 1.04091 5.47119 136 106 90
1.95616 1.0974 6.1769 102 104 84
1.6335 1.17966 6.82705 83 55 51
1.53841 1.20421 6.71995 138 110 108
1.61732 1.26611 6.82809 98 66 62
0.907732 1.14654 5.35377 124 103 89
1.50508 1.31728 6.82262 86 57 54
1.53362 1.44587 6.93588 60 30 28
1.45799 1.53209 6.89433 75 46 42
1.45728 1.59628 7.00263 64 34 31
2.13214 1.4729 6.17534 106 78 62
0.516462 1.77193 7.27956 156 124 114
1.48783 1.93279 7.37489 94 56 53
1.41553 1.93128 7.25955 134 107 104
1.16263 2.06177 7.24247 142 107 104
1.29936 2.0716 7.22235 138 106 104
1.34079 2.14169 7.40798 132 100 98
2.73722 -0.937522 6.57387 88 86 49
2.70161 -0.869873 6.67561 182 177 144
-0.18716 -0.66827 6.39351 126 126 104
1.33181 0.292186 6.20402 170 170 148
0.290632 0.40169 7.41516 52 32 15
0.891271 0.552721 5.96226 136 138 116
1.98585 0.615778 6.98094 162 120 106
0.276574 0.687069 6.52697 73 62 47
1.88911 0.663617 6.97445 156 114 91
0.115662 0.715725 5.53513 180 176 152
0.292002 0.757071 6.69588 102 74 60
0.353947 0.779506 6.7469 72 50 36
0.344868 0.807264 6.60064 112 82 61
0.895036 0.797626 5.65629 100 88 78
1.52596 0.889312 6.48692 36 24 13
0.898961 0.906456 5.60267 191 156 136
1.84752 1.04243 7.1093 75 54 46
1.53393 1.03162 6.61606 48 20 13
1.65411 1.06248 6.73674 86 57 50
2.07023 1.03352 6.23421 179 176 157
1.55201 1.08893 6.6751 89 65 62
1.63761 1.16894 6.78929 98 68 64
1.61808 1.27282 6.85993 94 62 60
0.474483 1.60238 7.24737 130 96 87
1.45263 1.58872 6.98365 76 43 40
2.19953 1.43461 6.14319 204 198 190
1.41696 1.93929 7.32819 114 86 83
1.35991 1.95207 7.32508 140 104 104
1.17299 2.07146 7.23194 117 79 72
1.26672 2.04044 7.08469 132 102 100
2.79943 -0.998052 6.72721 84 83 48
2.65771 -0.924061 6.58923 200 202 157
0.33904 -1.00346 7.17386 141 148 112
-0.441602 -0.105024 7.02889 140 136 92
1.90258 -0.0135485 7.3766 199 206 165
2.10019 0.0495878 7.25037 96 78 48
2.19686 0.103313 7.14997 192 166 143
0.364517 0.382591 6.96488 100 82 64
0.881852 0.601008 6.00354 54 55 35
2.0712 0.556435 7.06964 154 157 122
1.88642 0.658344 6.93624 158 118 95
0.291497 0.761291 6.66007 120 90 78
0.887286 0.820584 5.65524 25 18 10
1.4768 0.919378 6.52864 174 135 114
1.23503 0.937381 6.30236 68 32 24
0.894376 0.912492 5.58611 198 161 142
0.175138 1.05302 7.16487 130 93 71
0.417171 1.03419 6.71201 52 19 8
2.07442 1.03673 6.24756 155 152 132
0.236022 1.27051 7.31121 60 22 8
0.156212 1.29659 7.42285 187 176 152
1.54916 1.44912 6.99596 48 20 16
0.468055 1.59361 7.23494 100 60 51
1.45132 1.73754 7.10069 127 96 94
1.47076 1.95924 7.41444 84 46 44
0.882174 1.9859 6.85577 80 36 29
1.19936 1.9257 6.66261 95 60 51
2.21711 -0.267746 7.37241 88 81 36
-0.588139 -0.0471693 7.01474 92 82 44
0.763497 -0.00295235 6.77045 204 211 164
-0.110352 0.127762 6.98038 176 168 120
2.19397 0.157428 7.11694 154 116 91
1.42036 0.232642 6.79991 187 189 157
2.08429 0.347346 6.98118 170 131 116
0.37142 0.389716 7.27354 37 22 8
0.873496 0.602023 5.91754 50 51 35
2.011 0.577453 7.06035 206 168 158
1.95815 0.671645 7.03224 130 94 70
0.308279 0.874368 6.73229 110 68 42
1.44038 0.923398 6.39943 185 148 128
1.53597 0.928623 6.64782 122 83 61
0.160499 1.12968 7.19711 106 72 47
1.64759 1.06811 6.77166 70 42 36
1.51013 1.10365 6.65451 68 35 30
1.61943 1.17293 6.77309 94 66 62
0.990265 1.80805 6.09928 126 86 76
2.16206 -0.0827277 7.39043 138 140 102
-0.141062 0.0622238 7.06465 187 187 144
0.449965 0.197866 6.98374 202 208 162
2.19158 0.158506 7.12667 157 121 96
0.834457 0.548067 3.54594 152 150 125
2.07264 0.352076 7.18327 168 153 122
0.151807 0.931417 7.27708 142 96 69
0.888844 0.906471 5.53652 192 154 134
0.781893 1.02825 6.05651 100 61 50
1.63005 1.17047 6.82898 116 86 83
1.54764 1.42491 6.94945 125 90 86
1.64835 1.55352 7.21023 90 58 56
2.17006 1.39731 6.09112 206 198 190
0.881537 1.93031 6.6921 76 34 29
0.328257 -1.17031 7.26752 143 149 108
2.63027 -0.91771 6.62666 102 100 60
2.51334 -0.867509 6.63083 119 120 80
0.562854 -0.158598 6.90119 148 152 110
0.443622 0.0226507 6.60226 137 138 108
2.06363 0.343742 6.96956 184 145 126
0.424181 0.824048 6.70687 117 105 104
1.628 0.893025 6.44528 112 99 85
0.452298 0.965646 6.64768 93 48 24
0.213061 1.3484 7.43731 90 62 45
1.7249 1.519 7.23425 118 90 84
1.35126 2.10955 7.43875 130 94 92
1.11786 2.106 7.30817 144 97 84
2.59598 -0.887461 6.54318 146 146 104
0.585472 0.534905 6.05454 110 112 92
0.142877 0.686078 5.55529 177 173 138
1.06444 0.712216 5.71817 136 141 119
1.31739 0.861518 6.28546 62 42 40
1.63939 0.903843 6.51399 152 132 120
1.55851 0.91287 6.54799 76 50 32
0.601487 1.00648 6.49046 176 130 109
0.185433 1.32621 7.37038 68 44 26
0.982725 1.24451 5.28703 136 144 128
2.11308 1.44991 6.29124 159 142 132
1.32357 1.62525 6.90484 147 104 102
1.45811 1.72879 7.10277 151 118 118
0.834083 1.76573 7.08886 145 108 104
1.25577 2.1009 7.31337 118 84 76
-0.553512 -0.977228 6.18585 93 92 69
0.120441 -0.518198 6.6236 154 156 113
0.385614 -0.294612 6.78553 146 148 108
2.0375 -0.0786679 7.42444 178 187 148
0.731119 0.513228 6.33723 106 110 97
0.97724 0.933609 5.55 94 102 72
1.56003 1.20158 6.75153 79 52 49
0.980165 1.24463 5.27678 132 135 119
1.41942 1.9242 7.25078 151 126 122
1.33795 2.14512 7.41701 129 96 94
2.20508 -0.0065975 7.33908 197 192 155
0.244744 0.304578 6.55292 192 188 142
1.53461 0.886629 6.53463 34 20 11
2.11459 1.46908 6.2947 114 89 74
2.20193 1.45639 6.13743 95 66 48
-0.188536 1.57538 5.07696 98 91 67
1.15949 2.15126 7.27744 106 73 60
-0.606677 -1.05544 6.22087 106 110 70
1.68523 0.0651539 9.07493 160 151 114
2.1208 0.296062 7.00786 185 147 138
0.376745 0.793999 6.67113 116 100 94
0.952316 0.776826 5.68466 96 102 66
1.32383 0.851397 6.29486 24 12 8
1.63379 0.887832 6.40291 99 88 71
1.07809 0.816615 4.04684 116 73 50
1.51908 1.10914 6.65102 65 36 30
1.48243 1.56445 6.9725 129 109 108
1.82134 0.0625397 7.59044 158 162 121
0.334664 0.803187 6.62472 110 79 58
0.385163 0.801709 6.7566 183 173 183
1.09119 0.841778 5.76272 26 12 7
1.51619 1.10752 6.67636 74 46 40
2.2262 1.44585 6.10354 118 84 63
1.34645 1.94756 7.27833 135 96 98
0.0952375 0.692847 5.61748 184 178 154
0.403946 0.821531 6.66859 66 48 36
0.567139 0.976102 6.51563 124 78 52
2.17936 1.4034 6.11757 194 184 174
1.33226 0.209993 7.1187 100 91 78
0.0845806 0.695115 5.61139 186 180 156
1.49051 1.22458 6.73774 75 48 44
1.21216 0.953626 6.40555 84 56 46
1.11268 1.12551 5.52742 59 28 25
1.49167 1.53294 6.94608 154 134 133
0.310368 0.697418 6.70363 140 121 106
1.29377 0.846755 6.33594 100 68 58
1.88331 0.846996 6.43448 190 176 161
1.25885 0.824455 4.55207 150 126 102
1.57719 1.10581 6.66159 42 22 14
1.46208 1.74118 7.05376 108 77 75
1.14325 1.04277 5.62916 114 78 72
1.87562 0.846919 6.40568 182 171 156
1.10278 0.795073 5.22823 64 37 18
2.17718 -0.00722221 7.30317 156 128 100
1.78527 0.343277 7.5468 62 44 28
1.85277 0.290394 7.43495 167 158 132
1.78795 0.344116 7.53131 65 44 28
1.42643 0.208817 6.84435 183 182 150
0.786564 1.40203 6.79562 98 76 74
0.779026 1.37624 6.7307 126 98 92
-0.510223 -0.89827 6.23859 78 80 52
0.247387 1.43809 7.17339 141 116 93
0.354038 1.75092 7.48825 136 102 90
0.268932 1.46951 7.15907 176 157 132
1.37552 2.09222 7.33492 105 64 56
1.32751 0.819632 8.27052 64 43 34
1.784 0.895933 7.65897 70 56 43
-0.281008 -0.669923 6.32763 82 81 55
-0.454124 -0.820185 6.28229 84 85 57
0.347546 1.82008 7.61779 124 88 73
0.74439 0.769741 7.42271 54 41 30
1.48057 1.04854 6.8939 65 30 25
0.783203 1.05081 6.48919 111 60 42
0.731552 1.29712 6.80242 32 11 8
1.41273 0.949811 5.08579 126 96 85
-0.419609 -0.889015 6.26987 122 120 98
1.30885 0.736285 4.73474 170 158 137
1.6402 0.885739 6.4177 103 96 76
0.589613 -0.586494 6.96988 124 138 94
1.91619 0.451681 7.41943 88 56 36
1.39953 1.16014 7.43413 53 28 24
0.591125 -0.585657 6.96541 124 137 94
-0.577496 -0.959656 6.19277 76 74 52
-0.569555 -0.956856 6.17115 80 80 56
1.48178 0.300489 6.90417 84 66 47
0.855906 0.774075 4.91676 110 96 78
1.54299 0.872991 6.91999 95 74 61
1.16707 0.856356 3.96735 98 76 62
0.121651 0.233457 7.63922 170 176 131
0.852285 0.775435 4.83069 118 100 76
1.5294 0.895153 6.56216 51 28 14
1.16048 0.856778 4.01346 113 92 73
0.785536 -0.528689 7.04668 152 153 108
0.385634 -0.296809 6.80847 118 120 79
1.81227 -0.248215 6.67577 96 100 81
1.66609 -0.104383 6.71613 80 86 71
1.45905 0.0926441 6.7764 112 115 102
1.61575 0.0335825 7.67757 110 107 76
1.0711 0.208795 6.31344 144 147 118
0.678161 0.213497 6.49217 116 118 85
1.50997 0.0916091 7.89503 160 160 121
1.76044 0.144651 7.41183 154 163 124
1.06698 0.293004 6.16415 132 136 113
1.40319 0.144953 7.81686 106 96 78
1.4748 0.153484 7.75627 166 159 124
1.4192 0.159675 7.76012 116 104 79
1.43294 0.187756 7.85038 40 16 2
0.0551448 0.434459 7.44621 52 37 12
1.97275 0.454829 7.47084 152 127 94
0.542171 0.557875 6.71036 90 92 84
1.89211 0.548182 7.15034 44 24 10
1.94851 0.654458 6.94795 100 58 34
0.177589 0.732227 6.63104 84 42 26
0.352059 0.742798 6.68645 27 12 4
1.98315 0.725009 6.94215 113 71 50
1.22895 0.741453 6.47589 80 62 48
1.99464 0.746817 7.01542 176 145 130
1.97979 0.774473 6.95113 98 65 49
1.84261 0.809935 6.60919 116 96 78
1.31557 0.866059 6.29353 26 6 4
1.27854 0.895946 6.2574 96 62 49
0.905945 0.899493 5.62772 132 111 80
1.69943 0.934023 6.46399 158 140 133
1.99773 0.950934 6.28292 88 88 67
1.12548 1.02127 6.38699 77 30 8
1.20795 1.01625 6.51014 71 34 20
1.56782 1.08309 6.6214 80 58 55
2.06858 1.04448 6.17467 156 155 138
1.65538 1.16694 6.81131 60 32 28
1.06685 1.08337 5.5037 84 88 68
1.77196 1.24057 7.10065 119 94 89
1.46024 1.28201 6.6873 137 108 104
1.52735 1.30572 6.78294 128 106 105
1.52375 1.32403 6.79824 113 90 88
1.75754 1.37611 7.09885 32 9 5
1.20497 1.43094 6.72505 128 101 96
1.72536 1.54351 7.3474 68 34 28
1.67923 1.57051 7.2562 50 20 15
1.47279 1.53401 6.94957 46 20 16
1.49395 1.58072 6.95983 44 18 16
1.22711 1.661 6.84199 112 67 60
1.45794 1.73209 7.10457 126 98 98
1.56728 1.92182 7.53607 92 60 58
1.18142 1.86977 7.07652 122 89 82
1.19906 1.86431 7.08042 82 34 27
0.861223 1.94656 7.20798 129 92 86
1.15906 2.07161 7.25235 94 53 46
-0.200118 1.59761 5.09021 114 104 90
1.26284 2.10686 7.32398 116 80 76
0.829636 1.6002 5.09174 80 68 54
-0.896915 -1.26572 6.13138 100 94 50
-0.409529 -1.8969 7.94386 120 122 69
-0.558481 -1.0269 6.3037 158 158 112
1.74946 -0.185097 6.687 84 90 72
1.66413 -0.11724 6.83786 100 104 90
0.782491 0.00377207 6.8339 152 155 110
-0.742777 0.0265202 7.05837 110 88 39
2.12684 -0.0139914 7.30308 64 44 14
1.40554 0.126128 8.07325 108 98 80
1.42719 0.148815 7.88782 101 88 62
1.81224 0.317351 7.50744 85 71 42
0.0292921 0.379243 7.57809 122 98 76
0.172744 0.370152 7.68212 136 128 92
0.300977 0.403347 7.34334 32 22 6
1.20229 0.428309 7.14026 94 90 83
0.0622479 0.431139 7.41539 60 42 16
