ply
format ascii 1.0
element vertex 1287
property float x
property float y
property float z
property uchar red
property uchar green
property uchar blue
end_header
0.212673 -0.00243172 6.0187 82 68 36
-1.24174 0.0375046 6.74524 76 72 60
-1.43462 0.0535543 6.3344 84 84 86
1.03268 -0.00201448 6.45545 94 85 80
-0.0578109 0.0226263 6.63531 47 36 11
-1.25037 0.0616528 6.64962 124 114 94
0.2237 0.0280905 6.07439 41 25 6
-1.22887 0.0725321 6.75486 92 86 75
-1.32729 0.100469 6.42197 124 114 92
-1.25298 0.107875 6.4788 165 159 129
-1.11816 0.103641 6.63661 178 177 144
-1.0898 0.101632 6.62442 123 120 100
-0.192841 0.0748471 5.93168 58 43 18
-1.38954 0.111969 6.21684 137 92 78
-0.218071 0.08278 5.87661 32 22 6
0.988206 0.0623271 6.30276 128 84 71
-1.06811 0.12997 6.60869 116 112 100
-1.29731 0.139142 6.3051 101 98 84
-1.1359 0.13452 6.55622 172 169 141
-1.26106 0.143306 6.26655 154 151 126
-1.10408 0.144104 6.56829 168 166 136
-0.946926 0.139485 6.6458 152 150 126
-1.27644 0.160592 6.2117 155 154 130
-1.20056 0.162799 6.44371 160 161 140
-0.71385 0.162526 6.46696 96 95 90
0.0422304 0.137103 6.41886 62 43 2
0.933597 0.109411 6.19709 100 89 82
-0.0691777 0.155293 6.30915 66 48 4
-0.071717 0.162345 6.13009 75 62 18
0.396413 0.174987 6.89578 72 60 43
0.427044 0.176569 6.55424 68 52 28
-1.23056 0.21155 5.90404 188 182 152
-1.05109 0.216404 6.34925 106 103 98
0.871944 0.159168 6.05758 112 56 39
-0.532133 0.227574 6.36947 154 159 125
0.307801 0.205365 6.39864 38 18 2
0.314501 0.211882 6.88405 82 62 24
0.299089 0.205491 6.27153 38 22 1
0.359044 0.209297 6.32901 46 26 6
-0.673826 0.24511 6.31674 156 158 138
-0.765488 0.250787 6.26201 136 138 132
0.816269 0.194152 5.8869 44 38 32
-0.657437 0.252712 6.2451 52 49 41
-0.617126 0.249228 6.24425 93 94 75
-0.497585 0.247368 6.09338 176 177 140
-0.750553 0.274146 6.48355 58 56 41
-0.467191 0.259802 6.23289 173 172 138
-1.09934 0.263911 5.75299 156 124 112
-0.691464 0.271243 6.20812 126 126 112
-1.09557 0.288096 5.83521 162 148 132
0.437755 0.252364 6.02064 46 27 4
-0.812652 0.300807 6.10618 174 174 150
-0.511076 0.303555 6.17053 160 156 119
0.557592 0.267109 5.87336 114 98 68
-0.732527 0.323296 6.16219 154 156 141
-0.169156 0.302266 6.10064 70 64 30
0.282537 0.296698 6.22457 68 50 22
-0.203032 0.32819 6.06457 148 147 110
0.478779 0.305012 5.63126 172 150 102
-0.655484 0.374347 5.79013 114 107 95
-0.544933 0.356183 5.25684 200 198 168
-0.627986 0.397724 5.77614 140 136 115
0.306221 0.333267 5.23753 127 56 38
-0.330185 0.395974 5.72521 110 104 76
-0.151106 0.389157 5.48139 64 59 54
1.86955 0.725851 5.21566 164 158 160
0.00997821 -0.958538 6.7159 252 255 237
0.592474 -0.707342 6.06894 99 34 26
-0.95623 -0.613308 5.80781 168 88 71
-0.940179 -0.604812 5.81025 180 75 68
-0.954116 -0.577797 5.83099 189 124 118
-0.853277 -0.540356 5.72395 116 110 108
-0.333968 -0.519684 5.49533 204 156 128
-0.518523 -0.520702 5.58438 173 172 164
0.519491 -0.54048 5.97822 58 51 38
-0.360486 -0.442916 5.50534 174 135 100
0.383655 -0.422852 5.79349 28 28 28
-0.97339 -0.353986 6.0447 175 167 148
0.0196954 -0.334854 5.61126 117 108 74
-1.50424 -0.161662 6.93993 70 72 78
0.963005 -0.2065 7.10657 76 70 70
0.37034 -0.157049 5.98941 124 89 40
-1.4954 -0.10147 6.67697 216 209 179
0.228973 -0.0806876 5.87779 118 108 84
-1.53503 -0.0455606 6.6171 218 212 180
-1.50077 -0.0153751 6.50143 184 124 120
-1.33959 -0.0221841 6.72786 168 160 120
-1.47852 0.00906423 6.41063 216 206 175
-1.21452 0.0220743 6.76167 170 168 140
-0.234903 0.00349641 5.78551 142 130 84
0.247931 0.00583733 6.06079 50 40 10
1.00827 0.00445755 6.62187 106 96 93
-1.21642 0.0652035 6.70093 88 82 74
0.213786 0.0306821 6.10921 40 25 3
-0.943516 0.107716 6.65739 168 165 146
-0.865413 0.110448 6.60039 162 162 138
-1.00867 0.118982 6.56969 157 154 135
-1.32593 0.14058 6.13808 117 116 103
0.146619 0.11396 6.20328 91 70 24
0.812797 0.0977682 6.45229 128 112 92
-0.977312 0.156958 6.51816 139 140 126
-0.889335 0.151848 6.53494 170 166 135
0.0734067 0.133036 6.15496 115 101 52
-0.989727 0.184938 6.46716 172 170 145
-0.220453 0.165045 6.1467 52 48 17
0.896603 0.143701 6.03378 148 85 74
-1.28169 0.212159 6.00319 192 184 156
-1.04095 0.214466 6.32057 108 104 99
0.872594 0.155954 6.05347 119 60 43
-1.06663 0.220766 6.04478 146 142 125
0.385613 0.199315 6.60233 68 50 15
-1.21115 0.227958 5.88731 106 106 98
-0.513336 0.226752 6.31226 174 178 144
0.388475 0.207969 6.36333 68 54 20
-0.668912 0.239668 6.24404 51 50 46
-0.977521 0.260267 6.28607 132 124 108
-0.33622 0.258515 6.23537 130 124 90
-0.248165 0.255083 6.04202 132 130 96
-0.200789 0.262564 6.21085 122 120 90
-0.412131 0.269885 6.16657 96 88 64
0.422806 0.248421 6.17357 132 114 76
-0.377424 0.279045 6.17222 164 156 111
-0.835818 0.295084 6.12871 173 172 144
-0.668174 0.291465 6.12701 61 62 50
-0.601231 0.296564 6.21419 86 82 53
-0.185548 0.281165 6.17637 138 136 90
-0.878122 0.353886 5.75452 132 130 117
-0.354566 0.353741 6.04873 84 83 62
-0.664594 0.372032 5.79964 112 106 96
-0.45038 0.380887 6.06387 82 82 59
-0.330088 0.386251 5.40264 140 97 78
-1.05905 -0.659413 5.94693 132 134 134
0.634633 -0.686043 6.10504 64 51 34
0.564127 -0.662134 6.11178 110 40 33
-0.841113 -0.590699 5.70665 214 212 172
0.342764 -0.597266 5.70157 178 114 100
-0.957286 -0.582225 5.83577 190 122 116
-0.830838 -0.537899 5.68026 105 101 104
-0.269982 -0.509707 5.47191 156 44 35
0.44645 -0.418261 5.96615 77 66 38
0.426827 -0.398518 5.78334 77 62 32
-0.622399 -0.313555 5.65785 162 176 161
0.0715218 -0.314118 5.60227 84 75 43
-0.816579 -0.307174 5.8387 120 115 108
0.655261 -0.411544 7.32388 148 98 86
0.816022 -0.350034 6.67787 64 56 54
-0.745655 -0.239957 5.77768 176 174 149
-1.50428 -0.157534 6.92117 70 72 81
-0.770227 -0.1235 5.90584 99 96 74
1.02361 -0.159359 6.91225 124 75 72
-1.49744 -0.014686 6.50377 158 83 77
0.16882 -0.0491439 5.92633 130 124 70
-1.45647 0.0101177 6.3678 208 200 166
-1.48239 0.041033 6.40521 90 92 98
0.246111 0.00816758 6.072 53 42 14
-1.33353 0.0595163 6.51043 93 90 76
0.114348 0.054419 6.04026 88 69 28
-0.996573 0.105435 6.67014 137 138 123
0.0618234 0.0700553 5.97874 102 94 50
-0.296179 0.0826629 5.86332 34 29 8
-0.200635 0.102628 6.00009 82 66 28
-1.38316 0.142934 6.14831 100 96 105
0.846258 0.122467 6.87819 100 90 85
-1.10411 0.170756 6.41565 104 102 94
-1.00457 0.179522 6.4036 106 106 95
-0.0542114 0.145146 6.41214 96 84 31
-1.08188 0.216012 6.37473 93 91 92
0.875374 0.152366 6.06985 120 54 44
-1.1085 0.228324 6.15043 146 145 126
-1.19516 0.230798 5.86765 98 98 98
0.368792 0.207021 6.46508 44 32 6
0.782109 0.216429 6.19923 46 40 40
-0.980301 0.258585 6.29327 132 124 108
-0.492976 0.253653 6.1755 118 120 92
-0.86531 0.271785 6.22472 102 100 94
0.695108 0.25293 6.1397 133 55 42
-0.380064 0.272421 6.07855 56 52 32
0.664687 0.275274 6.18946 126 45 32
0.45923 0.25226 5.70498 52 36 11
0.301016 0.286379 6.22473 105 90 46
-0.587467 0.338772 6.03437 74 71 34
-0.662246 0.35662 5.50536 134 130 103
-0.659991 0.369776 5.76601 107 101 91
0.373311 0.319812 4.985 129 58 40
1.87251 0.736722 5.27957 144 139 140
0.261662 -1.00178 6.65647 254 255 248
-0.00973692 -0.981122 6.74971 252 254 240
0.647408 -0.740283 6.13688 83 76 75
-1.02471 -0.653089 5.94897 206 206 182
-0.901586 -0.603303 5.85928 216 214 167
0.758179 -0.644665 6.2525 204 202 186
-0.269067 -0.504523 5.45391 156 39 32
0.286888 -0.379743 5.7267 69 63 46
-0.947699 -0.331824 5.98654 132 131 124
0.703405 -0.367432 6.10475 105 92 72
-0.845773 -0.251717 5.89849 128 128 118
0.374438 -0.163273 6.00986 122 84 37
0.277528 -0.10688 5.93471 50 36 17
-1.31269 0.0250352 6.72913 126 128 109
1.02589 -0.00677079 6.43677 126 114 106
-1.24555 0.0832438 6.60049 140 133 101
-0.125022 0.071119 5.8929 102 97 68
-0.695987 0.113228 6.22228 159 160 136
-0.156788 0.15893 6.26192 47 37 7
0.330128 0.187905 7.21287 66 52 32
-0.490193 0.207221 6.16324 178 176 138
0.79975 0.191915 6.03463 58 52 48
-0.68411 0.250691 6.29829 52 52 46
-0.513037 0.329964 5.8533 80 76 42
-0.211881 0.350077 6.03946 157 154 114
-0.65209 0.358784 5.82828 165 162 129
0.338592 0.335623 5.82746 103 99 88
-0.185191 0.367895 6.00155 87 86 63
-0.815299 0.392907 5.97057 150 126 114
1.87093 0.73525 5.27929 158 152 154
0.261465 -1.0093 6.65626 254 255 247
0.640651 -0.74637 6.19202 52 48 48
0.632912 -0.700105 6.15343 64 62 66
0.798147 -0.635836 6.08724 204 202 186
-0.847597 -0.570241 5.79323 39 50 81
-0.331367 -0.470401 5.54156 150 40 28
0.425089 -0.405043 5.81939 68 54 24
0.64475 -0.449864 6.44943 184 176 172
0.701815 -0.26366 6.77315 68 62 58
1.00388 -0.214774 6.70686 146 132 117
-1.52103 -0.118383 6.79748 156 80 75
-0.711566 -0.0299933 5.99866 74 64 38
-0.862207 -0.0070672 6.27627 154 152 128
-1.27735 0.0557203 6.41698 98 92 82
-0.0814594 0.0587358 6.55916 112 96 62
-1.17478 0.107742 6.6741 174 170 138
0.683913 0.105968 6.57399 104 89 78
-0.985051 0.187021 6.4701 168 166 144
-0.66526 0.18545 6.36324 144 144 114
-1.24917 0.208782 5.94474 198 179 155
-0.973216 0.259215 6.13661 154 150 124
-0.670327 0.291763 6.17913 100 102 87
0.291189 0.278446 6.15455 41 24 2
-0.472746 0.325767 6.0879 44 44 24
-0.188231 0.327884 6.02645 143 140 102
-0.657808 0.354719 5.83867 136 132 110
0.237396 0.352918 6.09182 142 139 121
-0.0176231 -0.985604 6.76691 252 254 240
-1.06829 -0.661217 5.9503 168 170 166
0.644155 -0.690493 6.07709 78 72 66
0.964394 -0.643638 6.14153 160 150 133
0.320568 -0.560763 5.65885 138 74 32
0.354253 -0.343622 5.73201 36 42 41
-0.124747 -0.211992 5.62049 164 150 102
0.574479 -0.228732 6.43253 58 52 54
-1.51782 -0.0642922 6.65643 84 84 88
-0.742967 -0.0382607 6.04536 134 122 79
-0.267596 -0.0300572 5.76898 104 98 78
0.213382 0.0117889 6.08921 124 112 74
-0.597066 0.169333 6.36976 166 170 138
-0.734409 0.216739 6.57495 180 178 132
-0.827775 0.25502 6.16044 108 109 100
-0.692805 0.254102 6.2987 66 66 58
-1.00834 0.257709 5.80909 159 155 130
-0.762608 -0.547389 5.63718 38 39 41
0.308811 -0.466511 5.70853 101 92 70
0.316117 -0.461484 5.70935 38 38 24
0.00913178 -0.334758 5.59414 80 72 44
-0.349169 -0.237153 5.6092 128 92 56
-0.362668 -0.14806 5.66924 134 94 58
0.209951 -0.077284 5.84955 32 25 18
-1.22899 0.0372868 6.71647 74 72 57
-1.24545 0.0647822 6.63329 101 94 72
-1.19808 0.12047 6.50814 78 74 60
-0.147338 0.158286 6.07239 96 76 36
-0.66652 0.239647 6.29111 151 154 134
-0.585884 0.282188 6.18963 60 58 27
0.354544 -0.468138 5.73315 45 48 36
-0.203507 -0.161793 5.64464 119 86 61
0.0304421 -0.0399731 5.80841 53 41 15
-1.21602 -0.0156068 6.86998 159 157 133
-0.485416 0.289519 6.15797 150 148 117
-0.276188 0.345028 5.48318 124 122 100
-0.500992 -0.509806 5.52335 179 176 165
-0.585802 -0.988207 6.45397 194 187 156
-0.627098 0.33165 6.18528 162 157 118
-0.334601 0.346617 6.04516 52 50 37
0.180961 -0.546492 5.57129 94 89 84
-0.20325 -0.30943 5.56139 122 84 52
-0.0679421 -0.287925 5.61462 153 136 91
-0.166379 0.0740804 5.84482 60 44 18
-1.07522 0.151003 6.53188 138 138 122
0.533813 0.294951 5.65958 122 34 24
-0.0162902 0.0695333 6.05675 78 62 36
-0.285693 0.283449 6.13081 33 32 24
-0.513587 -0.493396 5.55019 76 78 89
-0.168574 -0.0495942 5.76682 148 136 87
-0.247343 0.433976 6.23092 87 44 35
-0.43255 -0.605523 6.33276 60 61 67
-0.774474 -0.305883 5.73471 103 98 78
-0.526841 -0.290184 5.63276 164 140 101
-0.299788 -0.275263 5.56656 132 93 58
-0.338386 -0.235847 5.64247 155 121 90
-0.227307 -0.188883 5.63518 160 132 98
-1.13671 -0.0891192 6.5776 137 132 102
-0.0433708 -0.020878 5.79258 25 19 6
-0.739207 0.276063 6.25844 79 76 64
0.0760297 0.460131 7.36935 89 84 82
-0.0123772 0.399421 5.87551 76 48 38
-0.483174 -0.18194 5.69405 141 103 70
0.0945383 0.0258446 2.98482 93 75 59
0.614751 0.297754 6.12067 58 22 12
-0.0342094 -0.342926 5.58601 58 62 52
0.586079 0.298452 6.05393 60 26 17
-0.0358047 -0.346149 5.58378 72 75 63
0.490286 0.320097 5.96516 81 36 25
-0.655738 0.207408 7.28625 104 101 64
0.00875616 0.391969 5.75746 70 24 22
0.490271 0.315146 5.97266 119 78 62
0.0395542 0.387916 5.84546 133 83 70
0.281889 -0.222719 5.80946 53 60 58
-0.538877 0.316376 6.18684 132 128 90
-0.00779036 -0.625314 6.26493 84 82 84
-0.324942 -0.449584 5.50346 179 144 112
-0.513329 -0.356905 5.58833 164 147 80
-0.600942 -0.271724 5.67111 168 142 104
-0.00744013 -0.568042 5.85864 54 14 8
-0.201177 -0.322073 5.56695 155 130 94
1.05157 -0.0624812 6.57761 115 75 66
-0.301496 -0.160345 5.63936 128 70 43
-0.482827 -0.504927 5.7917 90 38 36
0.181871 -0.110044 5.80757 114 105 70
-1.02475 -0.25147 6.15077 184 182 172
-1.08779 0.161627 6.41593 127 120 102
-0.0107261 -1.0053 6.68016 215 215 198
-0.350006 0.343632 6.03319 130 128 108
0.676234 0.262846 6.07451 140 76 62
0.603049 0.3095 6.17487 72 61 58
-0.00967002 -0.973033 6.74252 236 237 222
0.589558 0.287901 6.16632 46 34 36
0.688673 0.272217 6.13955 122 46 38
0.681488 0.270495 6.20379 122 49 38
-0.147969 0.400347 6.00782 81 52 28
0.458474 0.174656 6.32933 84 74 49
-0.473201 0.358975 5.08243 172 154 134
-0.495738 0.366756 5.25105 122 100 88
-0.176544 0.375956 5.9163 53 48 20
0.237979 0.364626 5.74165 80 44 31
-0.101661 -0.505143 5.79089 104 73 56
0.281828 0.288084 6.2413 67 46 22
0.082738 0.382104 5.70047 69 30 24
0.269953 -0.985878 6.62284 240 242 232
0.160638 -0.975445 6.69671 232 232 214
-0.475169 -0.177218 5.67942 120 78 44
-0.799703 0.137194 5.48253 137 137 119
-0.820692 0.277093 6.60644 66 64 50
-0.285575 -0.332168 5.55638 130 96 61
0.148679 -0.30034 5.67568 63 55 30
-0.234405 0.096591 6.14051 54 36 11
0.33552 0.194669 7.06052 37 21 7
-0.11957 0.399168 5.87249 76 38 29
0.0692303 -1.02204 6.63799 208 207 188
-0.780189 0.0701134 6.20204 162 158 130
-0.399995 0.344202 6.06713 129 128 98
0.504957 -0.65791 6.20409 118 92 72
-0.721578 -0.0508525 5.92833 152 142 93
-0.665936 0.305026 6.1825 46 42 24
0.30078 -0.565527 5.63339 126 86 12
-0.995272 -0.321832 6.23619 122 120 111
-0.682055 0.0373503 5.82305 48 46 40
0.0139753 0.390911 6.10853 166 127 106
-0.0235044 0.388487 6.05058 166 129 104
0.514228 -0.718204 6.25077 68 34 28
0.00199731 -0.0569993 6.64829 82 74 43
-0.635581 0.357609 5.99659 131 128 110
-0.0682444 0.387017 5.43377 123 60 42
0.0491281 0.118049 6.73253 60 41 8
0.366373 0.183665 7.08391 67 52 35
0.686079 -0.659845 6.33989 168 158 153
-0.24466 -0.0333207 5.78214 116 105 78
0.366288 0.266232 6.88211 44 28 4
-0.333431 -0.449499 5.51126 167 124 94
0.203241 -0.0593905 5.89568 29 16 6
-0.184285 0.375152 5.94986 58 53 38
0.147836 -0.0596954 5.86609 40 32 20
-0.00505568 -0.97137 6.76473 237 239 223
-0.729643 -0.535303 5.62745 164 166 138
-0.145323 0.0976847 5.97537 90 78 37
0.40796 0.342163 6.43125 70 38 32
-0.262236 -0.651605 6.61274 141 108 101
-0.503367 -0.510752 5.53672 131 130 126
-0.0347535 0.0847808 5.93133 41 30 4
-0.559325 0.250315 6.24402 170 170 131
0.344114 -0.596151 5.67481 196 146 132
-0.608684 -0.524936 5.58847 142 40 26
0.374202 -0.38163 5.78908 28 20 16
-1.07171 0.137647 6.57252 126 124 109
-1.05831 0.173281 6.4731 158 158 142
-0.596559 0.328781 6.12848 123 122 90
-0.13276 -0.469346 5.52242 52 45 44
-0.31788 0.0799004 5.96877 24 22 12
0.278494 0.285692 6.36315 84 69 32
0.363167 0.344104 6.43752 92 48 32
1.8727 0.731776 5.23684 145 140 140
-0.884604 0.146364 6.53559 172 166 130
-0.0663536 0.0704916 5.90358 56 42 16
-0.970416 0.185663 6.43033 177 176 147
-0.864666 -0.5907 5.71139 212 203 156
-0.190815 -0.48897 5.52601 98 98 92
-1.09849 -0.671027 6.10779 105 106 102
0.472359 -0.644174 5.8335 32 30 34
-0.951901 -0.567872 5.83612 169 116 98
0.431175 -0.305072 6.17163 62 60 52
-0.679221 -0.0118122 5.96818 92 76 42
-1.26549 0.00306455 6.76739 160 158 134
-1.12958 -0.714046 6.07706 187 166 160
0.584929 -0.718089 6.16421 96 44 34
-0.7598 -0.561103 5.65061 80 82 83
-0.490368 -0.524295 5.50309 200 200 172
0.834039 -0.328586 7.02864 128 96 87
-1.5063 -0.0234401 6.52764 160 99 88
-0.484686 0.019981 5.86036 112 116 85
-1.08272 0.177083 6.40855 112 107 89
-0.908946 0.183414 6.40196 95 94 82
-0.0459502 0.146244 5.88588 88 75 32
-0.348814 0.287222 6.15486 96 88 46
-0.690293 -0.991493 6.57557 194 184 154
-0.918008 -0.646725 6.19617 182 179 150
-0.503703 -0.527751 5.53138 201 201 166
0.484991 -0.361001 5.9241 27 30 19
-0.00219579 0.062353 5.90262 104 86 48
-1.06527 0.137255 6.635 112 110 104
-0.623751 0.272919 6.21 165 164 132
-0.698879 0.291093 6.15264 108 110 99
0.674968 -0.793797 6.22839 144 118 112
0.662409 -0.734647 6.0367 80 72 68
0.269008 -0.57834 5.64249 175 168 138
0.0858256 -0.536899 5.54357 112 23 15
-1.23797 -0.0333975 6.90288 130 135 124
-1.08767 0.14153 6.54377 166 165 138
-0.603164 0.337288 6.10773 106 104 74
0.468991 0.308255 5.66691 154 138 96
-0.387214 -0.517573 5.49049 194 188 148
-0.136226 -0.472587 5.53708 34 34 40
0.359235 -0.386033 5.81954 22 22 26
0.48586 -0.309107 6.01873 28 28 28
-1.05621 -0.255308 6.23107 216 215 211
0.919788 -0.283678 6.9024 116 109 100
-1.32801 -0.0183922 6.75036 87 81 64
0.181672 -0.0497159 5.90918 130 122 68
0.125692 0.0460806 5.98568 95 78 42
-0.745795 0.362298 6.24525 100 94 80
-0.452222 -0.512905 5.54088 75 80 96
0.259302 -0.31779 5.65053 112 107 88
0.204565 -0.0101626 6.07261 132 120 71
0.911651 0.100743 6.38226 148 120 101
0.586103 -0.687688 5.94732 160 114 105
-0.856387 -0.588972 5.68998 209 203 160
0.434828 -0.465395 5.94163 24 24 26
-0.594107 0.103927 5.86395 88 85 66
-1.07157 -0.669298 5.97757 112 112 113
-0.927444 -0.592174 5.79382 138 57 46
-0.88369 -0.165266 6.01348 166 164 130
-0.994285 0.08571 6.67494 130 132 120
-0.220909 0.0842184 5.90077 18 6 0
-0.9558 0.122592 6.63859 136 136 113
0.0256991 0.157967 6.15593 76 62 9
0.00371821 0.165163 6.14802 90 76 22
0.310609 0.290703 6.10971 42 22 4
-0.0124698 0.382496 5.45045 136 89 74
0.597906 -0.422484 7.59296 128 82 54
0.732769 -0.372511 6.66391 104 67 50
-0.867762 -0.231158 5.93749 144 141 134
0.517963 -0.204916 7.12447 106 99 76
-0.759146 -0.125235 5.88675 66 68 43
0.239652 0.074663 6.23023 79 59 16
-1.06388 0.149431 6.48455 134 132 114
0.389714 0.180729 6.59986 44 32 7
-0.803416 0.256086 6.28257 122 124 118
-0.806067 0.278937 6.22677 111 112 104
-0.735015 0.276663 6.25306 80 80 64
-0.720584 0.292287 6.19895 114 114 104
-0.697744 0.292938 6.17727 45 46 34
-0.576999 0.351145 6.00651 130 125 92
-0.676129 0.358458 5.9966 144 141 124
-1.0527 -0.65893 5.92701 114 114 116
-0.96143 -0.61596 5.81895 178 108 90
-1.09137 -0.627306 6.06574 175 173 172
-0.618044 -0.483393 5.6131 180 146 112
-0.918193 -0.262154 5.96877 126 124 116
-1.00171 -0.233369 6.11559 217 214 208
-0.880222 -0.163046 6.01089 166 164 130
-0.769812 -0.0761299 5.99932 69 58 32
-0.254426 0.0863895 5.89902 19 14 0
-1.2443 0.124263 6.47807 130 126 102
-0.716829 0.143784 6.14522 175 178 160
0.324569 0.20004 6.35131 38 21 6
-0.625478 0.274283 6.176 90 87 64
-0.644521 0.348709 5.96556 84 80 66
0.306527 0.331565 5.94193 100 92 56
-0.015224 0.383845 5.46793 116 38 21
-1.0909 -0.637208 6.02474 164 162 164
0.695005 -0.668036 6.30815 170 162 160
0.474706 -0.59633 5.86938 26 24 24
0.355753 -0.424299 5.75441 83 85 72
-1.14771 0.11801 6.52302 130 128 108
-0.265696 0.0869605 5.94964 15 12 1
-0.0900466 0.156106 6.04192 64 54 19
-0.581063 0.25081 6.30206 150 148 113
-0.726575 0.298928 6.27199 68 70 56
-0.963894 -0.611967 5.84565 162 53 38
0.709849 -0.618899 6.12829 122 109 86
0.706587 -0.401875 7.34297 162 152 138
-0.751488 -0.180194 5.84634 158 153 126
0.275713 -0.105792 5.95578 46 34 14
-0.737736 -0.0134718 5.91232 132 130 102
-0.783109 -0.0132822 6.08591 148 148 112
0.144355 0.0251683 5.91864 69 58 31
-0.976151 0.117612 6.47861 132 127 110
-1.07591 -0.657619 6.00255 122 122 124
0.675042 -0.645604 6.3895 120 107 80
-0.392307 -0.522604 5.51462 192 187 154
-0.746338 -0.354183 5.77635 190 158 122
0.490859 -0.304617 5.99376 23 24 24
0.488975 -0.287284 6.09285 48 52 40
-0.756861 -0.0310549 6.11528 43 34 18
-1.1481 0.0372241 6.69736 66 66 64
-0.656672 0.301831 6.12744 68 66 36
-0.501882 0.390435 5.62827 115 112 98
-0.833041 -0.317547 5.8522 128 122 106
0.680436 -0.374231 6.80383 112 54 44
0.478529 -0.312847 6.03828 27 26 27
-1.10984 -0.259513 6.34206 217 217 216
-1.19243 -0.216334 6.47429 162 162 143
0.553121 -0.183391 6.87018 70 65 55
-0.805211 -0.113928 6.04024 77 72 58
-0.190659 0.0488259 5.87038 137 129 76
-0.644691 0.282146 6.26483 161 160 128
-0.822107 -0.557706 5.6971 47 53 79
-0.550168 -0.525434 5.49545 210 192 154
-1.32496 -0.156589 6.54211 112 78 78
0.569855 -0.190196 6.79568 80 77 69
-0.788628 -0.116478 5.95261 46 46 28
-0.729595 -0.0843541 5.92735 156 150 118
-0.226043 0.0101211 5.8351 144 136 88
-0.847946 0.0590366 6.36703 108 106 96
-0.632421 -0.960683 6.3809 218 204 174
0.652405 -0.74653 6.11834 80 73 70
0.608856 -0.708042 6.03092 92 43 30
-0.969213 -0.631168 5.78613 212 216 189
0.460673 -0.64084 5.85009 50 51 49
-1.07772 -0.62335 6.00468 168 168 156
0.381777 -0.614098 5.80223 94 24 8
0.560258 -0.62189 5.89594 92 44 20
-0.0814383 -0.52391 5.50127 18 22 27
-0.160724 -0.490846 5.44367 16 18 30
-0.88116 -0.40533 5.79816 172 180 158
-0.877193 -0.340985 5.85858 144 127 106
0.587496 -0.416397 6.76824 175 167 154
0.541407 -0.450138 7.65647 79 68 56
0.336572 -0.309425 5.83075 22 24 16
0.950866 -0.291662 6.60982 182 176 172
-1.2506 -0.234285 6.773 66 62 60
0.925076 -0.286846 7.13137 78 70 64
-0.954598 -0.177284 5.95427 71 66 58
1.00287 -0.217583 7.03561 84 79 79
-0.813111 -0.141782 5.88544 101 98 64
-0.810768 -0.129155 5.90501 74 69 44
-0.986498 -0.0882431 6.25547 128 124 97
-0.862603 -0.0525815 6.15971 68 64 42
1.01547 -0.0458997 6.6755 131 97 86
-1.09932 0.0538409 6.83468 167 162 140
1.00211 0.00554301 6.49298 97 87 74
-0.748732 0.0524681 6.23253 70 66 42
-0.871397 0.0818774 6.61496 172 170 150
-1.12297 0.170185 6.45993 90 87 78
0.608896 0.140354 6.67835 97 86 69
0.60319 0.212579 6.41621 106 90 66
0.350787 0.263265 6.24831 124 110 64
-0.559765 -0.994634 6.51258 205 198 166
-0.593277 -0.983672 6.49346 204 197 168
0.55718 -0.628815 5.93284 93 38 18
-1.00176 -0.587452 5.89285 197 156 139
-0.386349 -0.514281 5.50008 205 199 152
0.532672 -0.436138 7.06679 113 98 78
0.480829 -0.365891 5.98087 24 27 22
0.344251 -0.306821 5.78436 25 28 24
-0.861351 -0.270581 5.91818 186 186 163
0.311232 -0.274627 5.97257 49 58 54
0.900397 -0.282558 6.97498 68 63 55
-1.51117 -0.208252 7.10988 171 115 102
-0.88723 -0.168443 6.02048 146 142 106
-1.45571 -0.159605 7.10102 154 130 87
-0.942908 -0.123925 6.21566 72 70 43
1.03365 -0.163312 6.93956 114 78 74
1.00916 -0.15883 6.84911 122 78 67
0.982593 -0.0655201 7.21901 139 104 96
1.05096 -0.0551741 6.63859 107 70 63
-1.26551 0.0355766 6.79831 74 74 61
1.00543 -0.0135578 6.629 132 120 112
1.02532 -0.008262 6.58052 79 68 66
-0.85661 0.0841052 6.58913 160 159 138
-1.2758 0.110657 6.54577 159 152 130
-1.2009 0.123819 6.38095 86 80 62
0.945005 0.0950809 6.30509 77 68 62
-1.35586 0.155334 6.08777 169 170 158
0.594028 0.126494 6.56952 86 74 60
0.792012 0.119001 6.47066 100 84 62
-0.75258 0.167182 6.5928 80 80 72
-1.18407 0.188466 6.35695 116 116 106
-0.468946 0.164722 6.19259 111 102 62
0.807444 0.144018 6.38587 108 94 67
-1.30593 0.194608 6.01655 155 122 111
0.902099 0.139919 6.0425 102 44 35
0.779071 0.160172 6.34436 110 98 70
-1.2051 0.222483 6.29859 132 133 124
-1.05414 0.217269 6.36743 104 100 91
0.344099 0.213013 6.50437 104 86 40
0.642614 0.230292 6.24198 118 98 67
0.463865 0.243426 6.30305 52 37 11
0.745266 0.220729 5.92971 109 42 28
0.420467 0.2568 6.487 52 39 12
-0.421464 0.275515 6.21638 62 54 28
0.42832 0.260182 6.2998 62 48 14
0.222542 0.334135 7.82238 132 114 78
0.534362 0.272553 6.04471 118 104 69
-0.6898 0.317318 6.02852 148 152 136
-0.70084 0.333388 6.13663 98 96 68
-0.595942 0.369999 6.01509 85 84 60
-0.146858 0.353849 5.92323 104 100 66
-0.378931 0.375184 5.82264 74 74 44
-0.237651 0.375656 5.73318 74 75 50
-0.274178 0.394008 5.85123 140 138 118
0.236968 0.353729 5.4553 147 80 59
-0.679475 -1.05349 6.88238 196 188 156
-0.603947 -0.986656 6.52111 200 192 162
0.598985 -0.707831 6.05823 91 28 22
-0.880257 -0.399389 5.79089 171 182 163
-0.788325 -0.36507 5.70073 193 170 130
0.550453 -0.448528 7.06737 180 176 171
-0.959424 -0.338557 5.98886 122 122 117
0.547145 -0.445479 7.52041 64 56 56
0.720379 -0.37755 7.34182 63 54 48
0.491289 -0.280363 6.09431 53 52 32
-1.37397 -0.234032 7.02479 72 68 66
-0.769234 -0.179922 5.88718 116 114 90
-1.34502 -0.110181 7.09461 137 133 92
-0.886185 -0.0999963 6.10518 80 80 58
0.0424393 -0.0438343 5.83524 116 112 84
-0.687069 0.0161654 5.95216 80 75 52
-0.836957 0.0468378 6.32129 80 80 78
1.00343 0.00118815 6.52865 98 88 81
0.999224 0.0496223 6.32216 127 80 71
-0.949699 0.105976 6.67469 176 174 150
-0.79221 0.140765 6.45165 166 168 151
0.813928 0.0994455 6.49762 100 85 65
-1.28932 0.195585 5.986 169 136 126
-1.14181 0.201167 6.25326 128 128 117
-1.21739 0.228526 5.90409 94 92 90
0.735224 0.187841 6.28462 106 92 63
0.387795 0.214924 6.40178 64 49 18
-1.15316 0.242933 5.8036 87 88 84
-0.547236 0.246912 6.19749 168 166 132
0.496224 0.227904 6.48157 100 90 71
0.496006 0.233249 6.2644 94 78 56
0.620019 0.238928 6.176 114 104 72
0.360911 0.280566 6.22953 65 48 18
0.233374 0.331821 7.75825 141 122 87
-0.432172 0.311915 6.13109 63 64 42
-0.403143 0.334228 5.9574 39 40 21
-0.0981036 0.335183 6.0291 78 67 32
-0.629181 0.361787 5.99872 90 87 70
-0.243784 0.352627 6.00215 104 102 78
-0.787487 0.343704 5.54784 194 194 180
-0.547964 0.362357 5.93414 144 144 118
-0.131842 0.338456 5.73239 134 132 98
-0.42279 0.368053 5.99723 66 60 35
-0.316375 0.372917 5.92052 120 120 91
0.693987 -0.639161 6.29493 128 114 93
-0.87196 -0.399568 5.89194 196 174 132
-0.904649 -0.325404 6.06836 112 110 98
-0.669853 -0.205521 5.59537 115 113 105
-1.41606 -0.23537 7.01361 218 215 192
-1.32971 -0.23287 6.91693 67 66 68
-1.48866 -0.220159 7.12241 170 108 102
-0.760765 -0.181753 5.86367 84 80 62
0.956804 -0.251217 7.07648 120 72 68
-0.766127 -0.125491 5.89262 79 80 55
-0.765245 -0.082031 5.98228 78 67 42
-1.27077 0.0396887 6.73117 147 147 128
-1.51111 0.0657196 6.41278 218 207 186
-1.47717 0.0841236 6.33729 173 124 112
-0.768076 0.118446 6.44849 149 150 126
0.945768 0.0960118 6.23101 88 78 72
-0.477392 0.164848 6.2213 118 109 70
-1.32816 0.19358 6.06018 188 159 148
0.617309 0.182501 6.50328 104 97 84
0.42637 0.203102 6.27049 100 83 38
0.410262 0.242044 6.42332 74 59 20
0.438707 0.248299 6.41202 108 94 58
0.721311 0.226819 6.06662 122 52 40
-1.18412 0.295404 6.0481 142 132 122
0.61269 0.271303 5.74337 80 74 66
-0.197187 0.348887 5.97355 146 145 109
-0.468702 0.349621 5.75189 86 84 60
-0.198744 0.398937 5.6396 50 49 50
0.578596 -0.684189 5.94877 104 42 29
-0.63363 -0.519529 5.48274 190 112 78
-0.811161 -0.383492 5.61776 170 182 164
0.516214 -0.472081 7.36128 196 191 190
0.49159 -0.282031 6.04952 50 52 41
-1.39555 -0.234584 6.96999 218 215 192
-0.706009 -0.0827664 5.79278 83 71 52
-0.738945 -0.0653928 5.85769 153 148 110
1.04289 -0.054251 6.63042 130 83 78
-1.49676 0.0611123 6.3886 212 204 175
0.985526 0.0492581 6.37952 142 90 80
-0.916044 0.128348 6.52219 148 146 125
-0.983503 0.184995 6.47566 175 174 148
-1.23363 0.206669 5.88846 204 192 169
0.372761 0.182194 6.92237 50 41 18
-0.736812 0.241818 6.41281 50 52 46
-0.620973 0.272394 6.22193 143 144 112
0.480289 0.241382 6.1526 108 92 56
-0.219222 0.395105 5.53259 46 44 42
0.594436 -0.701113 6.02885 96 29 24
-0.993998 -0.343254 6.04513 145 144 142
-1.39418 -0.241461 7.07831 67 66 68
-1.44412 -0.206902 6.99503 146 72 68
1.05045 -0.189191 6.02048 92 67 66
0.526532 -0.203944 7.22551 70 64 55
-1.54195 -0.0169775 6.60851 156 87 78
-1.49206 0.00630184 6.44304 207 198 162
-1.52961 0.0322136 6.50445 98 98 92
-1.07076 0.0602472 6.72103 138 134 108
-1.44213 0.087323 6.28853 146 88 76
-1.16291 0.0956676 6.66145 158 154 125
0.943751 0.0962302 6.2127 101 94 86
-1.05819 0.181335 6.53167 114 115 102
0.896243 0.142101 5.959 142 78 69
-1.26102 0.210924 5.9707 188 176 150
-1.07862 0.218844 6.36512 90 88 88
-1.023 0.267274 6.22952 144 139 124
0.274004 0.291924 6.25342 76 56 24
0.653726 0.256274 5.7257 51 44 48
0.581641 -0.701706 6.05067 100 36 28
-0.380512 -0.521743 5.49507 194 190 152
0.832188 -0.332224 6.42192 62 55 59
-0.969317 -0.200149 6.02288 84 82 89
-1.51061 -0.0149518 6.53843 156 87 78
-1.45902 0.0413765 6.36389 90 88 94
0.251212 0.00837032 6.0032 65 56 24
-1.28497 0.181409 5.9875 142 102 101
0.881023 0.143921 6.13824 154 98 86
0.823562 0.178859 5.99069 108 98 94
-0.676174 0.321799 6.24107 150 139 92
-0.450362 0.395095 5.77226 146 117 95
0.658214 -0.800394 6.31524 162 136 126
-0.959306 -0.607108 5.82928 166 64 52
-0.313769 -0.511387 5.54244 148 34 24
0.919668 -0.28989 6.85731 138 130 124
0.709053 -0.248464 6.54946 58 54 42
0.37475 -0.16705 5.98075 121 84 39
0.0330602 -0.0880036 6.04608 128 116 77
-1.50505 -0.0103491 6.51735 152 90 78
-1.2945 0.0390547 5.97589 118 118 115
-1.28065 0.0572546 6.43242 90 84 75
-1.34126 0.150479 6.06913 118 118 116
0.928473 0.094586 6.2588 140 129 109
0.853404 0.147982 6.36109 140 81 70
0.81989 0.181829 5.9139 67 60 60
0.579691 -0.647053 6.05369 102 64 43
-0.378564 -0.511712 5.47691 204 198 152
0.459103 -0.426578 5.9163 86 74 59
0.303521 -0.371791 5.75833 24 40 36
0.475273 -0.352336 5.98802 83 82 69
0.467111 -0.318602 5.9908 48 51 50
-0.0433505 0.0834576 6.13673 92 80 18
-0.218225 0.103222 5.90378 72 53 14
-0.696361 0.178154 6.43209 152 152 132
0.492657 0.1698 6.49228 64 54 42
0.393937 0.183969 6.47142 31 20 0
0.576987 0.251732 5.65914 81 64 34
0.57444 -0.685987 5.9632 106 42 30
-0.99703 -0.347764 6.06103 138 138 132
-1.21436 -0.0395454 6.88313 73 72 54
-0.976211 0.0267911 6.64278 120 117 100
-1.25458 0.0373345 6.70983 148 146 126
-1.29342 0.0495482 6.70673 90 88 65
-0.982208 0.107366 6.74961 173 171 150
-1.33095 0.14145 6.15343 111 108 97
-0.82533 0.15178 6.58249 134 134 125
-0.64389 0.173227 6.46314 158 162 133
-0.992467 0.289928 6.06356 130 130 121
-0.266418 0.299846 6.09361 66 67 49
-0.421851 -0.50337 5.50178 37 36 46
-0.754366 -0.126495 5.86957 92 90 69
-1.23327 -0.0335434 6.9063 79 82 67
-1.51226 -0.00666415 6.57644 135 72 64
-1.01236 0.0316587 6.6992 144 141 118
-1.42712 0.0652353 6.24017 219 206 182
-0.890004 0.063505 6.53229 136 135 117
-1.13107 0.0833357 6.69024 84 86 78
-1.19963 0.110144 6.43481 90 82 65
-1.07649 -0.66628 5.98296 136 136 136
0.569005 -0.684298 5.96974 140 90 71
-1.0504 -0.636541 6.13242 206 187 152
0.73537 -0.36171 6.39377 124 95 80
0.477947 -0.285539 6.14204 56 57 43
-1.36571 -0.112692 7.14282 154 150 103
0.233097 -0.00694554 5.93593 124 112 74
-1.23942 0.108338 6.68673 114 110 92
0.300468 0.202349 6.4481 61 43 21
-0.596563 0.233076 6.23943 143 138 94
-1.15253 0.248691 5.82871 134 124 116
-0.616619 0.354178 5.39856 184 178 153
-0.631259 0.404357 5.90057 111 108 96
-0.485126 -0.504294 5.4803 164 161 146
0.486167 -0.483314 6.00159 28 32 32
-1.45147 -0.196332 6.99514 146 68 56
-1.13414 -0.052904 6.77552 126 126 94
-1.05981 0.296922 5.79594 94 96 92
0.363097 0.320551 6.03777 132 120 71
-0.970248 -0.61032 5.85806 158 55 44
0.579676 -0.629896 5.86173 100 33 18
0.50665 -0.538092 6.00485 43 38 30
-0.336959 -0.465629 5.41078 166 80 54
-1.52607 -0.14485 6.88316 210 204 176
-1.09584 0.0457565 6.71945 140 138 119
-0.262783 0.259848 6.20809 77 75 54
-0.672466 0.370299 5.79632 109 102 92
0.551016 -0.652901 6.02331 99 32 20
-0.722369 -0.419498 5.65431 190 164 113
0.662388 -0.387721 6.42207 84 54 52
-1.17843 -0.136145 6.70357 175 166 116
-0.928993 -0.123584 6.2152 73 70 46
-1.5093 -0.0704652 6.63283 120 118 124
-1.18791 0.137227 5.74798 124 120 124
-0.976898 0.187825 6.55007 118 118 105
-0.80002 -0.431223 5.83929 194 166 116
-0.882955 -0.326676 5.8583 134 126 116
-1.05977 -0.224387 6.57282 138 134 113
-0.960671 -0.0818983 6.26813 167 163 131
-1.23242 0.0225642 6.88957 70 70 64
-1.05632 0.0177123 6.7666 145 143 115
-0.607388 -0.985354 6.53629 206 198 166
-0.517117 -0.510821 5.57887 28 32 48
0.291129 -0.434315 5.70779 86 84 72
0.568371 -0.267261 6.58014 136 123 86
0.667588 0.237701 6.28618 100 41 20
-0.192168 0.27684 6.12709 52 48 18
0.456628 -0.29495 6.01319 49 48 44
-0.695107 0.230215 6.39331 82 84 60
0.666465 -0.799644 6.31189 112 68 66
0.449481 -0.427786 5.94477 74 64 50
-0.229693 0.104274 5.93014 68 46 10
-0.696213 0.363588 5.89761 151 149 130
0.25176 0.209248 6.36895 50 36 12
0.0692999 0.0505585 5.89806 57 48 12
-0.896838 0.174575 6.52042 118 116 102
0.520617 0.277483 6.05934 88 72 54
-0.87124 -0.129307 6.08957 79 74 47
-0.0143183 0.151004 6.06527 72 50 10
0.168043 0.0407136 5.88118 72 46 26
0.710876 -0.383848 6.34873 156 128 116
-1.24067 0.0105438 6.76133 160 156 128
-0.131115 -0.0015349 5.80429 32 22 6
-0.563397 0.240708 6.25685 138 136 106
-0.293992 -0.272163 5.57904 162 131 97
0.107798 -0.232132 5.69213 106 94 60
0.0136606 0.0783939 5.90964 64 50 14
-0.110948 0.281179 6.16864 118 112 73
0.382563 0.184647 6.97577 49 36 24
-0.155207 0.406966 5.8832 80 46 38
0.0640371 -0.032033 5.83094 96 82 44
0.367908 -0.556468 5.7028 94 24 16
0.0878055 0.122714 6.39657 70 50 12
0.0280943 0.133529 6.31056 109 92 44
-0.167094 0.0785595 5.9973 99 85 56
0.102214 -1.00141 6.66108 236 236 226
0.0226441 -0.947579 6.70828 230 232 213
-5.46033 -0.815631 9.42539 54 48 57
-0.0378307 0.0842329 5.90407 76 66 36
-5.51282 -0.827897 9.50504 50 41 50
-0.960238 0.0013063 6.191 132 129 100
0.00706147 -0.0195418 5.81243 86 79 51
-0.196684 0.15646 6.37098 56 46 20
0.164656 -0.976055 6.6806 240 242 229
0.163165 -0.603771 5.99716 164 154 116
-0.23681 -0.0322484 5.78893 131 114 80
0.180612 -0.0530966 5.79946 52 44 20
0.509766 0.177307 5.62362 70 54 40
-0.00852151 -0.980796 6.74485 221 223 209
-5.48141 -0.827255 9.44331 67 52 64
-1.03033 -0.33451 6.31453 98 96 84
0.338827 0.217743 6.68402 68 46 17
0.653079 -0.851097 6.41252 162 159 152
0.525997 -0.636759 6.08047 72 38 32
0.199938 -0.31101 5.70267 121 99 56
-0.145665 -0.126191 5.75435 139 103 62
-0.0352029 -0.418862 5.54374 134 96 60
-1.03019 -0.313998 6.29228 98 91 83
-0.236467 0.269833 6.18985 28 28 13
-0.47011 0.380704 6.09882 96 93 74
0.453961 0.233831 6.32857 94 80 50
-0.306527 -0.439962 5.50802 150 118 80
-0.460638 -0.287518 5.61268 167 138 104
-0.132288 0.447674 8.18818 58 42 24
0.477966 -0.369553 5.96804 35 30 24
-0.114491 0.158057 6.27449 76 60 24
-0.083195 0.406425 5.94369 116 106 94
0.0145138 -0.959034 6.70882 234 236 219
0.337062 0.175387 4.42422 74 69 57
0.00260089 0.0721457 5.31148 92 74 28
0.0442822 -0.803339 7.43234 88 46 43
0.0130305 0.0628604 6.17837 71 60 28
-0.378699 0.235513 5.98665 116 110 82
0.432095 0.188809 6.42712 56 40 24
-0.358806 0.2525 5.94171 146 141 110
-0.137112 -0.219001 10.4985 111 101 76
-0.210768 0.16017 5.81418 74 60 36
-0.00759288 -0.834582 7.80614 20 14 26
0.151436 -0.536189 8.8917 118 80 54
-0.16812 -0.202668 4.47585 123 114 92
0.23717 -0.315112 5.72074 73 65 46
-0.73291 -0.575216 6.05135 31 36 53
0.757477 0.143779 6.65805 78 68 51
-0.148534 -0.166986 5.65091 138 106 72
-0.708418 0.187612 8.08785 69 60 30
-0.244556 -0.326185 10.259 41 35 28
-0.00511646 0.055015 6.49011 86 64 34
-0.40915 -0.599356 6.30445 84 26 35
-1.03288 -0.770112 8.08908 94 86 70
-1.42657 -0.804527 11.6173 116 112 92
-0.527303 0.299941 5.25527 123 120 93
0.470735 0.290805 6.03668 100 83 52
-0.396265 0.353612 5.6005 81 74 58
0.271664 -0.577953 5.64887 162 148 104
-1.35259 0.113518 6.18385 134 126 102
0.108148 -0.549185 5.56245 178 162 132
-0.250774 -0.630098 6.56441 110 18 5
0.0712896 -0.240642 5.67069 92 78 46
0.0571211 -0.173388 5.73105 120 107 70
0.349169 -0.3243 5.79984 26 20 17
-0.0958229 0.0687232 5.79043 91 82 50
0.0402716 -0.0448 5.83624 80 71 46
-0.165508 0.40885 6.24213 103 100 84
0.111661 -0.3144 5.68593 90 95 88
0.0592765 -0.318759 5.63335 83 72 42
-0.174203 -0.503983 5.48893 132 128 120
0.248722 -0.427894 5.68931 92 96 83
0.222357 -0.0748017 5.80779 58 53 35
0.199202 -0.0620155 5.91221 24 11 2
-0.898045 0.169072 6.41686 126 122 108
0.37789 0.182985 7.0629 62 50 33
-0.142867 0.277691 6.1764 136 122 78
-0.31917 0.372314 5.8982 100 102 73
-0.0102788 0.122954 6.86857 67 49 13
0.40525 0.251665 6.84177 63 49 26
-0.413801 -0.510928 5.48891 48 52 54
0.147083 -0.494211 5.58265 58 52 36
-1.28047 0.0618587 6.63782 155 151 122
-0.132238 0.00374571 5.84203 57 50 20
0.14724 -0.0745943 5.8233 104 98 68
0.465462 0.311323 6.37672 88 81 58
0.280341 -0.441809 5.73029 79 75 56
-0.330849 0.346902 6.01705 44 45 28
0.254108 -0.429052 5.68298 93 96 88
0.481108 -0.392513 5.88836 58 55 42
-0.101088 -0.650838 6.52385 122 92 84
-0.217175 -0.026468 5.76157 140 128 100
-0.175158 0.0961432 5.92268 96 80 46
-0.919698 0.172044 6.44369 130 128 115
1.00994 -0.0212103 6.70376 118 96 85
0.158955 0.0385927 5.98739 54 30 10
0.989247 0.0145161 6.61846 112 88 76
0.907707 0.106176 6.45376 87 57 48
0.905391 0.107627 6.4229 98 65 56
1.03146 -0.0336795 6.69848 110 80 78
-0.720307 -0.413649 5.66234 191 160 116
0.839953 0.152202 6.78637 116 105 98
0.117164 -0.0814742 5.80813 133 124 82
-1.26734 0.00246235 6.77976 164 158 131
-1.02111 0.134613 6.6075 104 106 92
0.676514 0.218571 6.56822 60 30 24
-0.272744 0.349698 6.01381 110 114 93
-0.316093 0.387613 6.05808 109 111 90
0.474609 -0.396849 5.91011 78 74 58
0.351024 -0.279572 5.8057 22 26 22
0.214834 -0.0502949 5.90696 72 58 26
-1.16414 0.0795085 6.68479 93 94 81
0.0742539 0.0695194 5.94946 62 46 16
-0.215066 0.10273 5.89882 74 56 13
0.589679 0.124319 6.58569 106 91 75
0.467262 0.234183 6.65444 108 99 76
-0.244496 0.302289 6.12268 121 120 94
-0.579219 -0.982896 6.44556 208 196 166
0.485629 -0.637145 5.76533 168 168 164
-0.623563 -0.529931 5.62199 143 42 30
-1.31561 -0.0404491 6.81686 118 100 72
0.0870366 -0.0478587 5.81489 60 54 36
-1.00472 0.113 6.61095 134 131 117
-0.732693 -0.184362 5.81833 188 184 148
1.03953 -0.160501 6.76882 124 82 80
1.05328 -0.105441 6.69528 78 70 67
0.0684841 0.0523534 5.87524 58 49 12
0.691686 0.100013 6.55898 104 90 78
0.258099 0.209327 6.34117 45 24 8
-0.973152 -0.220486 6.07418 180 160 146
0.492423 -0.287125 6.08957 58 56 34
-0.244963 0.165411 6.04591 52 48 20
-0.723437 -0.559178 5.66165 211 206 164
-0.374975 -0.474201 5.54229 148 44 26
0.37449 -0.171296 6.01526 122 81 38
0.222298 0.00595356 6.11624 115 103 64
-0.351564 0.157303 5.99438 102 89 50
0.789668 0.161301 6.59046 132 94 86
-0.868616 0.296892 6.19651 171 170 140
0.656478 0.222985 6.70932 114 78 70
0.567135 0.248634 6.72354 138 108 93
0.295587 0.341028 6.0318 63 54 38
-0.463175 -0.51439 5.53208 98 101 116
0.52358 -0.529195 5.87073 78 72 54
-0.735025 -0.414701 5.6968 192 160 117
0.491051 0.26056 6.95444 124 102 84
0.660138 -0.690031 6.57338 186 178 172
0.529362 -0.489102 5.98361 39 30 13
0.469205 -0.350081 5.98871 86 86 69
0.488 -0.216964 7.36076 102 95 76
0.485204 -0.216133 7.54507 62 57 46
0.180068 0.01254 6.03077 68 56 26
0.0757456 0.0685539 5.95244 41 28 0
-0.745835 0.286439 6.3471 86 88 75
0.624683 -0.679817 6.13559 74 60 32
-0.754946 -0.542936 5.60712 34 43 60
-0.809445 -0.246836 5.89263 138 134 120
0.516691 -0.204242 7.29872 64 58 44
-0.773984 0.0373228 6.1048 119 116 99
-1.38881 0.111013 6.29899 127 118 97
-1.13959 0.171094 6.40389 148 148 139
-1.09595 0.179481 6.44439 114 107 93
0.330785 0.192027 6.95177 36 18 6
-0.575946 0.26388 6.1938 98 100 74
-0.700223 0.282393 6.1796 127 128 116
0.380185 0.23509 7.13504 100 88 71
-0.260645 0.276629 6.18929 124 128 100
-0.735902 0.31433 6.06336 100 99 94
-0.634101 -0.96128 6.38642 216 202 170
0.496648 -0.602231 5.84988 28 22 24
-0.330408 -0.515633 5.4347 195 179 141
-0.380888 -0.510435 5.48464 205 198 152
-0.942358 -0.336263 5.94408 144 144 138
0.480929 -0.391665 5.8665 94 86 58
-1.00934 -0.190185 6.15422 107 68 60
-0.940384 0.179375 6.50507 104 100 89
0.363995 0.214885 6.41243 104 89 42
-0.0617049 -1.03543 6.8578 216 214 195
-0.949074 -0.6096 5.79564 160 70 58
0.443995 -0.65031 5.92746 130 130 124
-0.370647 -0.524835 5.52528 201 192 152
-0.401031 -0.517818 5.54261 208 202 154
0.505042 -0.518052 5.88497 46 46 39
-1.4767 0.0407697 6.38498 94 96 95
-1.18904 0.177118 6.37121 92 92 88
0.554288 0.2502 7.07527 136 124 91
-1.08052 -0.665761 5.99266 138 139 135
0.579809 -0.656297 6.04457 100 34 28
-0.320045 -0.508569 5.45175 162 86 64
-0.931861 -0.259614 6.06512 124 124 116
0.597269 -0.110782 6.99862 100 95 78
-0.731756 0.119436 6.3292 159 160 136
-0.241705 0.164388 6.04198 55 50 26
-0.581541 0.205755 6.3412 118 110 84
-0.418257 0.249693 6.16293 151 144 107
0.242744 0.274441 7.52127 72 56 31
0.356722 0.264856 6.46305 92 75 42
0.617064 0.267765 5.73499 45 42 40
0.665661 -0.786643 6.28578 110 62 62
0.577094 -0.677194 5.94161 114 52 38
-0.709196 -0.558169 5.59957 205 200 163
0.496377 -0.586243 5.7653 21 20 24
-0.414175 -0.502868 5.45606 51 60 78
-1.20415 -0.177793 6.37524 188 156 146
-1.37209 0.0544462 6.60632 115 110 94
-1.19555 0.108698 6.58521 89 86 75
-0.751718 0.200033 6.45234 158 152 126
0.663208 0.254102 5.65133 68 64 66
0.626128 0.267524 5.67991 57 52 50
-0.137459 0.377778 5.60919 132 128 92
-0.410762 -0.528983 5.58802 197 191 152
0.530993 -0.449077 7.50359 70 64 70
-1.49098 -0.0634422 6.61083 72 72 78
-1.54795 -0.0487193 6.64794 218 212 190
0.342063 0.177373 7.08206 98 84 55
0.693114 0.246443 5.42382 86 80 76
0.626495 -0.791023 6.42332 96 63 60
0.603116 -0.681638 5.89692 108 43 40
-0.978824 -0.611995 5.85373 160 80 66
-0.878575 -0.598083 5.72921 202 184 151
-0.841108 -0.551225 5.7259 74 80 97
-0.681433 -0.521766 5.62801 168 52 39
-0.387019 -0.518813 5.49699 198 192 149
-0.524304 -0.489557 5.56612 72 71 76
0.49702 -0.303747 5.90182 24 27 23
-1.03995 -0.156729 5.9658 224 200 200
0.227346 -0.103336 5.64188 109 102 75
0.306158 0.180345 7.16492 66 52 25
0.585877 -0.900561 6.88553 89 83 82
0.644683 -0.762552 6.24572 52 38 38
0.643537 -0.744052 6.15334 52 44 46
-0.718414 -0.534242 5.53303 43 46 59
-0.812806 -0.392653 5.73917 194 172 132
0.357558 -0.50925 7.88082 206 186 182
0.445667 -0.45924 7.45763 118 58 39
0.379983 -0.461517 7.72326 166 133 96
0.344718 -0.317556 5.758 21 26 29
0.343314 -0.308511 5.81588 22 20 14
0.327547 -0.290156 5.88697 22 26 18
-1.10376 -0.212254 6.39516 178 170 146
0.902137 -0.291107 7.34979 84 76 68
-0.772448 -0.117421 5.91113 60 57 38
0.947505 -0.232206 7.07672 119 85 68
-0.805173 -0.0995293 5.96434 70 68 46
-0.890133 -0.0685906 6.12898 90 86 56
-0.800229 -0.0551896 6.01471 92 86 57
-0.78763 -0.0403937 6.04509 56 50 33
-0.696865 -0.0292303 5.97557 42 30 10
-0.850283 -0.0124626 6.25493 150 150 124
0.208286 -0.0626694 5.85496 30 21 6
-0.864249 0.0137916 6.33591 126 120 93
-1.50966 0.0569044 6.42483 190 189 157
-0.273844 0.00561982 5.83112 30 22 7
-1.15473 0.0609887 6.88269 112 110 86
1.00887 -0.0437925 6.69081 130 97 82
-0.630872 0.0551142 6.08311 120 101 60
0.226511 0.0136174 6.05076 50 36 20
0.11905 0.0618365 6.00141 42 21 1
-0.345722 0.162215 6.04492 66 58 20
-1.19728 0.231454 6.62905 100 101 96
-0.0221249 0.15445 6.07457 54 36 2
-0.215716 0.175924 6.16181 70 69 34
-0.634319 0.300242 6.11522 89 84 58
0.621115 -0.90216 6.71732 104 100 98
0.486129 -0.403007 5.86395 86 81 64
0.568449 -0.432303 6.8661 174 142 137
0.463476 -0.458643 7.7793 86 76 63
-0.779711 -0.24107 5.81321 112 110 99
-1.18959 -0.221312 6.58223 172 166 142
0.925681 -0.291264 7.06639 102 92 96
-0.897827 -0.163949 6.0585 160 152 112
-0.741803 -0.151951 5.84484 106 96 65
-0.83519 -0.138127 5.9691 107 104 66
0.948538 -0.258167 7.21041 115 77 76
0.914709 -0.25122 7.26804 115 70 60
-0.187246 -0.127279 5.68708 121 80 40
1.0285 -0.183026 6.87321 100 78 76
-0.695494 -0.0282036 5.96825 50 38 18
-1.491 0.0288079 6.4126 124 126 124
-0.822614 -0.00320334 6.16134 60 58 48
1.03634 -0.106005 6.84292 76 68 65
-1.50597 0.0395707 6.41892 116 118 113
-1.24503 0.0272719 6.85224 158 158 138
-1.26309 0.035922 6.78409 90 84 72
-1.27241 0.0489603 6.65501 90 88 66
1.02052 -0.0410036 6.76782 110 76 63
0.97744 0.0069312 6.67381 104 96 88
-0.152179 0.0919801 5.79546 56 42 14
-1.1163 0.180365 6.37311 107 106 94
-0.60433 0.173403 6.37554 173 175 146
-1.11282 0.20524 6.1937 150 150 130
0.801506 0.100447 6.54916 106 92 66
-1.18453 0.220769 6.23127 136 135 128
0.946332 0.0977404 6.24233 66 59 46
0.82345 0.179703 6.03428 45 38 32
-1.0513 0.286598 5.7305 130 128 114
-0.710339 0.297428 6.21683 72 72 62
-0.298265 0.279771 6.40652 120 122 90
-0.693355 0.307861 6.19234 72 72 50
-0.742659 0.322001 6.16513 138 140 131
0.358681 0.268108 6.42014 37 19 4
0.289417 0.292666 6.3679 42 24 4
0.60714 0.265696 5.77718 94 88 84
-0.466777 0.37263 5.88262 78 74 46
-0.211141 0.372021 6.10988 78 75 44
-0.180559 0.376997 5.93367 64 56 31
0.714722 -0.771103 6.07994 113 66 64
0.642206 -0.745765 6.16064 115 106 100
0.625761 -0.681284 6.13237 60 46 26
-0.878408 -0.561401 5.63687 211 182 169
0.499211 -0.519379 5.91301 38 40 34
0.389908 -0.405618 5.69218 76 82 69
0.554131 -0.452714 6.90352 189 178 178
-0.17292 -0.316307 5.49682 164 138 102
-0.85426 -0.2521 5.86808 138 139 133
0.925317 -0.281925 7.08523 76 68 63
0.962915 -0.249263 7.17456 114 78 78
-0.859356 -0.0864667 6.04178 166 162 124
-0.737987 -0.0775275 5.90833 86 80 50
-0.816657 -0.0484345 6.04839 112 108 80
-0.980177 -0.0257857 6.3279 131 135 118
-0.812804 -0.0178175 6.15092 138 141 114
-0.777072 0.0114633 6.16177 84 82 56
0.168301 0.0137652 5.97874 81 71 38
-1.38473 0.118252 6.15358 192 179 153
-1.27673 0.125254 6.5443 91 88 66
-1.27295 0.164356 5.96639 139 126 120
-1.14612 0.161836 6.43852 94 96 89
0.225971 0.0806484 6.26626 88 72 28
-1.20275 0.171665 6.49217 122 122 108
-1.11565 0.170563 6.44442 98 98 87
-1.08652 0.191512 6.40618 162 158 136
-0.615139 0.176667 6.40032 172 174 148
-0.422609 0.162102 6.12801 94 84 47
0.80383 0.102935 6.52532 117 104 78
-1.19579 0.221995 6.25899 136 135 128
-1.2005 0.227711 5.86747 112 112 106
0.944125 0.107975 6.13798 66 55 50
-0.642062 0.212695 6.40265 104 100 62
-0.719158 0.231969 6.4385 86 89 58
-0.675332 0.239612 6.25271 58 56 51
-0.563093 0.238827 6.24987 81 83 52
0.36077 0.210537 6.48457 40 23 1
0.394888 0.20624 6.42488 102 82 42
0.850628 0.166314 6.0031 155 142 112
-0.946107 0.286053 5.96081 120 120 112
-0.642463 0.294483 6.06564 72 72 60
0.409218 0.244284 6.38666 86 70 28
0.503898 0.238167 6.11649 68 53 18
0.756775 0.221648 5.83225 112 46 33
-0.201139 0.349909 5.98937 130 130 94
-0.525027 0.374667 5.4682 181 176 148
0.0337256 -0.468353 5.36858 138 70 48
0.435138 -0.435965 7.39675 132 112 72
0.453689 -0.463785 7.85458 80 69 60
-0.744144 -0.208398 5.79756 117 114 108
0.241891 -0.247272 5.77636 116 104 66
0.852627 -0.327087 7.17068 128 87 83
0.869124 -0.303376 7.44292 69 61 64
0.909041 -0.252617 7.31517 124 81 68
0.951439 -0.252973 7.20293 114 72 70
-0.799354 -0.0889389 5.89523 154 146 107
0.990561 -0.20912 7.08877 79 75 74
-0.751128 -0.085012 5.93051 87 82 56
-1.37347 -0.0402022 6.93488 136 118 86
-0.896978 -0.0228947 6.3588 144 146 119
-1.51627 0.0606986 6.41954 206 203 171
-0.627601 0.0544286 6.08159 128 108 68
-1.20698 0.109445 6.64666 88 83 71
-0.203829 0.100567 6.02521 70 56 32
0.239336 0.0762937 6.20746 104 86 38
-1.35428 0.181752 6.088 156 134 120
0.953912 0.0616481 6.49766 130 90 75
-0.642262 0.176868 6.47678 167 168 139
-1.01844 0.268777 6.20684 144 143 124
0.363045 0.210471 6.56521 102 84 44
0.422039 0.242325 6.33885 86 70 28
0.433322 0.249199 6.39471 86 70 38
-0.766162 0.32564 6.24166 144 147 136
0.443321 0.257956 5.97017 64 48 16
-0.635671 0.331136 6.13503 164 159 123
-0.829277 0.335309 5.58257 108 94 90
-0.620593 0.34473 6.12047 84 78 46
0.269684 0.29356 6.25679 42 25 6
0.395885 0.307322 6.21513 106 58 30
-0.509113 0.364493 5.87952 70 67 46
0.681243 -0.787968 6.22518 114 63 61
0.427519 -0.467279 7.58814 117 56 41
0.376619 -0.44934 7.69976 146 125 86
0.638482 -0.41785 7.52942 114 62 59
-0.742205 -0.208562 5.7884 120 116 112
-0.795515 -0.184032 5.95163 172 167 141
0.97078 -0.214152 7.1936 78 76 74
-0.742549 -0.0855501 5.9109 86 81 54
-1.35727 -0.0366089 6.88568 118 102 72
-0.765869 -0.0393013 5.99288 64 58 42
-1.45505 0.00748124 7.10148 68 69 58
-1.38984 0.0644244 6.17976 212 200 170
-0.858642 0.0558722 6.25 154 152 124
-0.588912 0.0614784 6.00196 115 92 51
-1.18942 0.17404 6.37275 88 86 80
0.968564 0.0590849 6.41043 137 92 80
-0.813307 0.196552 6.72872 138 139 110
-0.654222 0.277441 6.30333 160 160 128
0.448548 0.247855 6.29404 81 64 34
-0.265035 0.331309 5.8987 40 34 25
-0.545815 0.373527 5.50982 148 143 116
0.149905 0.358165 5.42395 86 80 72
-0.937931 -0.611019 6.20454 166 56 38
0.542513 -0.436032 7.42312 82 73 69
0.582988 -0.432701 7.81236 110 58 54
-1.11227 -0.211699 6.47001 118 106 85
-1.44366 -0.205283 7.00046 146 66 57
