ply
format ascii 1.0
element vertex 1350
property float x
property float y
property float z
property uchar red
property uchar green
property uchar blue
end_header
-3.72275 -0.277227 8.84643 216 160 118
-3.55461 0.108022 8.84994 80 33 21
-6.25911 1.42581 7.35263 70 64 72
-6.17475 1.50646 7.50828 86 81 91
-1.40055 2.00887 8.69057 94 66 58
-6.59174 2.63648 8.16634 172 106 56
-6.42455 2.84274 8.50794 135 64 28
-5.49582 3.14405 8.57268 121 23 18
-2.1688 -2.39549 9.71602 162 106 88
-1.22213 -1.72688 10.0918 78 64 24
-5.31857 -0.417327 9.91746 102 55 38
-4.43911 -0.366182 9.28771 118 72 46
-3.5228 0.0725143 9.60415 119 72 56
-6.14868 1.91723 7.8245 20 12 20
-6.36799 2.75747 8.64386 152 112 96
-6.38334 2.80024 8.3392 135 62 27
-5.5489 -0.734279 9.62095 55 24 14
-3.84703 -0.0268095 8.80676 171 110 90
3.27841 1.56902 9.06523 149 110 94
3.54785 2.1759 8.78212 175 148 140
2.62251 -2.52742 7.67997 98 24 8
2.56938 -2.12876 8.15154 102 84 75
-2.7102 -2.37309 10.5125 132 117 82
-4.4891 -2.00092 9.66914 86 56 18
-2.69537 -2.16235 10.5031 62 35 8
-2.44031 -1.70454 10.3327 160 136 94
-1.08555 -1.15094 10.1084 68 40 10
3.81692 -0.968098 9.22223 78 68 50
-4.23591 -0.3103 9.52477 122 81 54
-3.36328 0.171444 8.90439 68 22 8
-3.00519 0.179728 9.19227 152 97 78
-3.40219 0.214205 8.96515 137 92 77
-6.00127 0.442235 7.06956 66 25 26
-6.00138 0.498249 7.02556 146 120 119
-6.70268 0.558754 7.02378 140 70 58
3.87909 1.8563 10.2492 216 195 187
-6.1809 1.52451 7.53298 104 100 112
4.67262 1.9856 8.67928 216 189 164
-1.13248 1.8608 8.19643 218 196 186
3.52923 2.10621 8.9132 41 13 14
0.75986 2.00538 8.36933 133 120 110
3.75207 2.35881 10.6434 216 193 184
-1.42834 2.03121 8.58367 91 64 56
0.723325 2.08682 8.49872 86 70 62
-0.186587 2.02993 7.80371 118 80 67
-0.98276 2.6939 8.51875 84 20 12
-6.32859 2.71298 8.46166 148 98 88
-6.23737 2.7611 8.34637 131 79 67
-0.234019 3.05339 8.73388 78 49 48
2.27841 -2.72307 8.36549 132 102 74
-2.63892 -2.64751 10.5875 121 112 72
-4.54895 -2.00393 9.73193 130 98 72
-2.69245 -2.17197 10.4814 56 28 10
-4.45164 -1.35132 9.89965 49 11 0
-1.34542 -0.365485 10.6541 100 68 40
-3.49527 0.240143 8.89828 101 49 36
-5.98709 0.323124 7.00787 144 86 88
-6.59415 0.533482 6.88072 172 94 90
-1.08316 1.75588 8.12629 148 100 92
4.62527 1.97056 8.60631 200 173 148
2.42312 -2.78341 8.86026 108 80 42
2.395 -2.74091 8.7198 102 66 35
2.45321 -2.73758 8.88253 161 142 106
2.54287 -2.31657 9.11512 133 126 78
-2.29739 -2.25192 10.0768 83 32 12
-4.51564 -2.04255 9.75423 66 42 14
3.58034 -1.06772 9.68058 62 40 6
-1.32201 -0.4534 10.4321 106 82 58
-3.40664 0.170137 8.95472 72 26 14
-3.09071 0.191967 9.66443 152 126 103
-5.98392 0.324678 6.99131 134 65 68
3.30925 1.59429 9.01942 130 92 76
3.37121 1.93871 8.78266 140 68 68
0.933344 1.89207 8.31934 106 92 78
0.574975 1.88358 8.19201 143 121 108
-1.30359 2.04173 9.52724 130 104 92
-0.998254 2.1121 9.2682 116 89 76
-1.07645 2.02843 8.35567 136 52 44
4.99474 2.28503 9.10356 164 139 126
-6.23067 2.73878 8.31881 136 96 84
3.54587 -3.88271 10.083 112 97 60
2.37322 -3.25504 8.84613 128 110 63
2.66187 -2.54992 7.70443 105 14 6
2.48958 -2.86684 9.05371 108 91 46
2.4965 -2.76064 8.97992 161 142 106
2.48939 -2.25113 8.72323 108 78 48
-2.69681 -2.50313 10.5539 148 140 96
-2.6989 -2.20477 10.5858 53 32 9
-2.9932 0.0959529 9.14826 146 92 74
-3.09969 0.195988 9.81003 153 130 107
-3.16512 0.356287 10.9288 140 128 100
3.86895 0.610626 9.44278 118 89 74
-0.785669 1.07622 9.09153 135 102 71
-5.64839 1.14955 7.72871 164 126 102
-0.768701 1.43821 10.5192 152 102 79
-2.11995 1.95996 10.6232 194 140 111
-1.25349 2.07873 9.75819 129 103 92
-0.862542 2.10258 7.73701 185 167 160
0.150195 2.25022 7.7732 202 185 180
-0.968001 2.67866 8.64734 153 91 78
-1.02122 2.67234 8.27307 64 20 12
-6.1763 2.6765 8.10612 140 106 92
-6.55759 2.65653 7.80617 152 85 68
2.29038 -3.21609 8.69548 148 136 88
2.36746 -2.80338 8.80977 116 102 54
2.41753 -2.77801 8.8041 100 64 31
-4.61077 -1.86124 9.13452 168 114 88
-5.38547 -1.41373 9.57906 113 72 57
-2.61532 -1.41066 10.8302 122 88 50
-1.00029 -0.780737 11.2012 90 66 38
-3.7004 -0.249622 8.58639 222 166 126
-3.99112 0.0758571 8.94307 192 133 112
-3.48975 0.221646 9.02909 130 78 65
-3.12046 0.211456 9.82767 149 128 103
-0.798646 1.42508 10.414 154 107 83
3.84118 1.52863 8.72126 183 156 146
-6.18316 1.36376 7.62747 120 112 120
-1.03242 2.08243 8.61018 138 50 39
-0.78877 2.17867 8.18285 156 138 130
-0.0418518 2.22304 7.92789 122 105 98
0.0914047 2.26985 7.98007 40 22 12
-6.27695 2.72757 8.40314 146 111 98
-0.485029 3.01379 8.43836 107 76 74
2.35401 -2.23676 8.68597 121 112 66
-4.58226 -2.12169 9.94648 37 24 9
-2.69659 -2.24458 10.5984 52 30 10
-4.60121 -1.84329 9.37568 88 48 34
-4.6309 -1.67716 9.14114 179 120 99
-1.28257 -0.526369 9.99159 100 60 34
-6.24858 -0.18057 6.97167 142 129 118
-1.5472 -0.25933 10.6162 109 68 48
-6.03258 0.324239 6.9406 124 45 51
-5.27119 0.429148 8.68188 146 101 80
-5.03245 0.778335 8.58 126 28 22
-0.968591 1.15233 8.91038 149 74 58
-1.0219 2.10371 8.66319 138 52 38
-5.77935 2.0345 8.0225 117 26 11
-0.966167 2.92475 8.51768 90 56 49
-0.482976 3.0273 8.49758 103 72 70
-0.598981 3.02012 8.3585 80 46 42
2.27666 -2.64013 7.91672 118 88 58
-5.10626 -1.94011 9.15212 119 76 56
-4.94255 -1.35151 9.12641 124 67 52
-3.54973 -1.01718 11.4125 108 70 39
-2.85199 -0.186306 10.2434 127 74 60
-0.843889 1.18519 9.62689 152 83 66
2.81141 1.41157 9.99182 134 9 10
-6.19772 1.37806 7.39019 20 15 28
-6.31684 1.44154 7.49624 80 72 81
-6.13633 1.56671 7.9027 20 15 32
-1.41023 2.01892 8.74359 92 66 60
-0.575463 1.9741 7.82542 152 135 132
-1.10377 2.04044 8.23371 146 69 55
-0.492236 2.16931 7.76563 142 122 117
-0.561469 2.19566 7.75493 136 120 114
2.5421 -2.30883 9.06671 100 82 36
-1.08272 -1.35059 9.72326 91 66 33
-4.20702 -0.397314 9.33607 82 39 20
-1.78918 -0.38997 10.6906 94 49 36
-3.70005 0.0176197 9.38723 184 126 104
-5.21544 0.0361532 9.60431 94 43 22
-3.47537 0.145926 8.79327 166 116 102
0.314133 1.12708 8.24324 134 40 24
0.613906 1.83359 8.27091 151 133 116
-6.16411 1.9036 7.89734 22 10 27
-0.663648 2.19115 7.78476 48 29 22
0.175983 2.28916 7.93044 135 122 115
-6.16764 2.45366 8.34848 88 6 4
-6.43195 2.57619 8.59045 120 50 26
-6.26644 2.63331 8.301 134 90 76
-1.0059 2.86771 8.34972 88 55 48
-0.92376 2.91135 8.34858 70 34 26
-5.5998 3.1697 8.88357 126 18 18
3.88414 -3.71888 7.9253 162 141 102
-2.05117 -2.64359 9.77934 89 59 42
2.67372 -2.13727 7.44583 136 102 86
-5.25501 -2.02968 9.24633 117 78 54
2.77722 -1.78561 7.60007 64 32 25
-5.2601 -1.85611 9.18318 162 117 92
3.40361 -1.86104 9.58255 100 58 27
3.53481 -1.29695 9.6357 81 52 20
-1.09197 -1.19449 10.1196 133 110 86
-4.99263 -1.08421 9.75607 68 32 24
-0.987388 -0.885018 10.1393 132 118 88
-5.66987 -0.716022 9.94261 48 16 4
-1.12404 -0.752105 10.1721 98 78 54
-3.68166 -0.31139 8.88109 222 168 130
-5.51221 -0.3086 9.9666 184 126 105
-2.98683 0.0798006 9.07197 160 108 94
-5.28715 0.120187 10.1714 107 75 60
-3.59367 0.155611 8.80357 112 60 46
-0.4061 1.15429 7.99788 148 104 80
3.62258 1.28237 8.30134 164 118 100
4.09994 1.46622 8.58762 170 134 123
4.07265 1.51535 8.58559 114 70 52
0.0586971 2.15207 7.8964 74 61 56
-0.715055 2.22155 7.76058 68 48 43
-5.29363 -1.74465 9.16331 169 120 96
4.29599 -1.31085 8.62873 114 102 88
-1.11752 -1.23755 10.0951 42 18 4
-3.55906 -1.1035 11.2689 153 142 106
-3.54911 0.0609 8.74404 140 91 79
-0.805333 1.43744 7.75873 77 28 22
3.79541 -3.59034 7.9478 136 116 72
2.83572 -2.04263 7.32035 122 84 66
-0.976124 -0.885919 10.1539 134 119 88
-5.66275 -0.457085 10.1013 66 28 14
-2.95949 -0.0186694 9.04099 178 121 102
3.42938 0.596078 9.16811 72 52 44
4.73122 0.761152 8.98615 118 81 58
2.82386 -2.14698 7.28079 159 128 114
2.71855 -2.14422 7.54185 138 105 92
2.81431 -1.78588 7.57807 35 11 6
-5.24528 -1.84591 9.12827 156 112 86
-5.70409 -1.12308 10.0129 120 110 73
-5.77303 -1.07773 10.0291 154 144 115
-5.32675 -1.89612 9.46081 102 63 42
2.84089 -2.1627 7.32696 147 110 94
-5.01759 -1.25888 9.61748 120 66 50
-1.46201 -1.02736 10.0608 172 125 109
-5.35444 -0.640025 9.86883 106 60 44
3.45072 1.45171 9.00195 172 148 140
-0.107463 1.84258 7.74158 84 73 58
-0.482578 2.83351 8.63904 69 26 28
-0.225466 2.87083 8.66167 49 18 18
-0.23541 2.96943 8.5959 54 24 20
-5.60326 -0.584982 9.95685 177 123 98
-0.395864 0.939863 11.5081 108 87 59
-0.615237 2.07468 7.77944 61 48 46
-0.555102 2.12371 7.8497 76 66 66
0.139628 2.16524 7.81792 162 148 142
-0.593144 2.20548 7.76605 69 48 42
-5.49689 -0.341927 10.0243 153 100 80
-0.387302 0.940201 11.5187 108 89 61
-0.745732 2.90006 8.69949 132 105 99
-1.42084 -1.31525 9.94031 145 96 76
-1.48225 -1.04797 10.0478 150 105 86
-4.55735 -1.6102 9.38029 178 120 100
-5.80122 -0.569679 9.93963 136 114 92
-0.19676 2.85698 8.67187 59 15 14
-0.644785 2.0593 7.69377 70 58 54
-0.210968 2.86738 8.69011 57 14 12
-1.83237 -2.5947 10.4102 94 58 41
-3.72498 -0.27618 8.83887 210 154 116
2.47697 -2.30546 8.88425 96 82 44
5.46521 -1.44992 9.30175 107 62 39
3.68347 -1.11675 8.42895 142 120 108
-5.61256 -0.387731 9.96139 46 12 2
-5.41453 0.112485 10.2227 100 67 45
-5.27096 0.607907 8.0307 148 72 34
0.0931763 2.12791 7.83946 114 100 94
0.137701 2.54009 8.00269 62 18 15
-5.48782 3.15215 8.57892 110 35 29
9.71059 -4.20231 15.1757 96 70 54
2.69316 -1.93595 7.71265 114 30 24
2.77921 -1.81904 7.5941 40 4 2
4.90941 1.80421 8.65927 149 116 100
3.67905 1.8542 8.9682 96 96 86
0.407096 2.01611 7.78561 149 114 105
-5.8379 2.05656 8.1368 118 32 9
-0.0845139 2.1727 7.69829 143 124 118
3.36826 -1.69243 7.14945 142 118 112
3.57978 -1.63341 9.56925 113 82 41
3.7732 -1.16675 8.1385 151 97 82
-2.60691 -1.33588 10.4453 102 70 32
-3.54867 0.0672779 8.69507 148 96 82
-5.23196 1.9568 10.494 179 128 104
4.28241 -3.67143 7.84666 158 138 92
3.80453 -3.49517 7.94526 134 86 52
2.50015 -2.18726 8.69968 144 114 91
2.62371 -1.82621 7.96755 152 123 110
3.41054 -1.63168 7.15118 56 36 30
-1.00284 -1.34851 10.0321 88 76 34
-0.122092 1.79753 7.50641 105 80 65
0.110835 2.11473 7.6826 113 96 92
-0.235156 2.23983 7.89273 154 76 72
2.71072 -1.93727 7.7531 126 44 37
-2.56467 -2.19468 10.0385 67 22 6
-4.62775 -2.0255 9.54239 148 106 82
3.77403 0.517028 8.65561 183 154 133
4.01929 1.36496 8.74397 96 54 31
-2.16684 2.03026 11.1183 208 156 116
3.3882 1.97429 9.03756 114 56 58
-3.42409 2.16934 10.3804 75 40 28
2.51637 -3.15275 8.82473 131 100 72
-5.00898 -1.61314 9.48629 168 108 88
-1.79469 -2.24249 9.89002 70 36 24
-2.88049 -0.0940849 8.94217 79 28 16
2.85814 1.05269 9.54593 174 147 140
-2.51919 1.67645 10.8801 186 134 110
-3.17532 1.89832 10.6233 100 65 55
0.709576 1.86241 8.19048 152 136 118
1.53164 -0.744089 1.73823 106 82 72
3.62489 -2.11428 6.71147 79 56 49
3.54468 -1.99734 6.82688 87 64 58
3.56548 -1.91082 6.75975 96 78 72
3.80279 -1.76325 6.96365 90 74 68
3.52409 -1.76999 7.15418 84 64 57
3.81091 -1.70841 7.007 174 157 154
3.39406 -1.65403 7.10031 145 124 116
2.95036 -0.995978 9.10501 119 68 47
3.14217 -0.870722 9.41688 142 92 68
2.85202 -0.597074 9.65894 141 106 82
3.41052 -1.7993 6.8415 164 140 133
3.9598 -1.7407 7.00376 118 100 96
3.41775 -0.824245 9.64994 8 14 4
3.20412 -0.627649 9.39899 122 82 54
3.87157 -1.67695 7.1813 99 81 77
3.26591 -0.534655 9.61949 98 64 44
3.59863 -2.06355 6.28654 169 139 127
3.52994 -2.08702 6.8433 72 52 45
3.57078 -2.01522 6.50322 74 58 58
3.65371 -2.03271 6.82042 61 48 46
3.92171 -1.62798 6.96032 88 72 66
2.92213 -0.636634 9.72563 157 126 102
3.66279 -0.610207 10.1412 132 137 126
3.57583 -2.00235 6.6706 63 49 47
3.8763 -1.62915 6.93707 117 101 97
2.73439 -1.13217 9.37727 91 56 22
3.63255 -1.79108 6.72559 138 122 119
3.47574 -2.17467 6.76868 136 108 100
3.08216 -1.52386 7.79195 95 59 28
2.73416 -1.84125 7.16662 117 28 20
2.3795 -2.73775 8.34166 100 74 42
2.3625 -1.33524 6.15813 145 116 102
3.91182 -0.914284 8.05288 176 101 76
2.73344 -0.91554 9.2188 190 159 140
-4.21364 -0.305701 9.43359 113 74 48
-2.74646 -0.190035 9.27825 116 68 53
-3.82341 -0.0945775 8.95648 84 28 9
-3.83993 -0.0588106 8.85675 168 108 82
-3.50108 0.254211 8.74559 98 48 34
4.92398 1.79533 8.66435 150 120 108
-5.30088 2.13545 10.3718 168 116 89
0.827814 2.00618 8.42757 131 118 110
-1.30151 2.04789 8.65069 104 82 70
-0.16313 1.99631 7.69469 170 150 142
0.0986394 2.07521 7.80262 159 144 142
-0.665816 2.25513 7.70715 88 66 58
-5.27887 -2.04142 9.33428 110 74 48
3.26195 -1.80123 9.21065 100 57 26
3.7524 -0.95584 9.09057 84 74 54
-3.67759 -0.321781 8.68063 214 158 120
-5.24101 0.15809 10.3172 116 92 74
4.36326 0.870569 8.91324 118 106 89
3.41702 1.71648 9.51387 216 200 196
-5.3075 2.01743 10.8234 182 131 106
-0.589142 1.98785 7.79036 136 122 122
2.81838 -1.45809 6.91544 170 142 130
-5.58709 0.606449 7.94067 167 146 116
0.960551 1.91555 8.39248 104 90 77
2.61395 1.0596 10.8088 100 86 63
-0.405492 1.16325 8.00015 152 106 82
3.40696 1.71793 9.4294 240 228 224
-5.15668 1.94343 10.3088 184 134 108
-0.901251 2.08705 7.95077 145 54 46
-2.63081 -2.38959 10.1547 52 24 10
2.91497 0.438425 10.1504 97 62 36
2.69951 -0.887529 9.54302 90 62 36
-0.979598 -0.909827 10.4988 122 100 67
2.708 0.49044 10.0448 78 50 22
-0.117778 1.08827 9.32288 162 148 128
-0.762028 2.05145 8.06463 180 158 148
2.47812 -2.88037 9.07829 126 110 62
3.21168 -1.5818 9.46246 104 56 24
2.5955 -0.851553 9.24055 68 38 15
3.71624 -0.793758 8.41793 155 124 110
2.72629 -0.739374 9.26956 69 39 22
-3.64082 0.123003 9.7923 134 83 68
3.59967 1.31618 8.55564 98 54 26
3.42667 1.73107 9.54551 199 182 176
-0.780376 2.11973 7.77806 107 96 90
2.69999 -0.880071 9.51184 82 54 28
3.64464 -0.444416 10.3272 154 140 118
-5.37608 0.45637 9.34384 142 98 82
3.93836 -3.6341 8.13705 107 78 44
-2.62575 -2.39296 10.4712 82 52 40
-4.75135 -2.08588 9.6023 94 65 45
2.52664 -2.16536 8.76357 126 98 68
-2.58977 -2.29661 10.3596 158 110 88
-2.50251 -2.19053 10.0539 82 25 8
-5.3239 -1.92088 9.22638 178 132 105
-4.56651 -1.96168 9.62259 66 29 10
-2.70462 -2.13049 10.5137 116 101 74
-2.4588 -2.00582 9.91699 88 18 4
-5.47524 -1.73731 9.31748 130 89 72
3.31058 -1.71068 9.80192 173 159 112
3.36567 -1.62865 9.99316 136 120 76
-1.2083 -1.56439 10.2107 134 111 90
-2.34328 -1.514 10.0763 186 132 102
3.47753 -1.49804 9.51163 151 131 89
3.118 -1.44844 9.2923 159 110 86
3.33184 -1.51689 9.86901 176 152 112
3.25705 -1.45474 9.37774 150 104 84
-4.45353 -1.3141 9.81927 58 18 6
4.0453 -1.20101 8.33563 149 124 114
3.76634 -1.18874 8.6953 78 60 46
-1.53375 -1.28685 10.174 127 81 66
3.94139 -1.10167 8.21323 136 60 55
2.71613 -1.12392 9.2269 102 64 40
2.9466 -1.12162 9.17885 169 122 101
-5.66946 -1.11153 9.97782 137 111 91
2.68329 -1.08515 9.10106 102 58 38
3.24649 -1.11755 9.48592 166 99 80
4.05642 -1.04226 9.073 156 128 117
2.68527 -0.895961 8.9894 76 51 37
-5.69795 -0.762527 10.0648 156 135 113
-5.68782 -0.553495 9.82315 198 146 119
-1.68583 -0.350509 10.578 56 17 6
-2.74582 -0.271752 9.23687 85 40 23
-2.96748 0.0178228 8.97906 164 111 96
3.07821 0.431098 11.4559 114 96 70
3.46465 0.478818 8.9658 81 59 50
3.97306 0.516536 8.73955 166 143 132
4.12199 0.533056 8.84606 68 44 31
-6.46009 0.261253 6.72767 185 72 74
3.90728 0.564986 8.73606 167 141 128
3.61675 0.579374 9.05248 156 121 104
-6.00493 0.318113 7.0186 152 97 96
3.50085 0.609941 8.9731 147 119 107
-5.96967 0.44044 7.11641 154 114 111
3.86125 0.790076 9.01031 78 49 30
-5.2618 0.608872 8.04256 147 54 31
4.20257 0.945399 8.85081 202 180 168
2.48235 1.24222 10.0354 84 57 38
3.07096 1.32549 8.88595 222 198 191
3.88753 1.52003 8.72094 158 124 110
-6.91497 1.00668 7.30318 132 53 28
-6.91685 1.00381 7.19746 166 128 98
4.72409 1.83956 8.75667 54 30 18
3.42409 1.79583 8.8204 112 72 58
4.76317 2.10266 8.89402 55 42 28
3.57644 2.18041 9.01202 49 20 17
-1.47011 1.89562 8.85401 116 95 82
-6.04767 1.45506 7.56972 36 32 46
3.75938 2.23095 8.94025 60 40 34
-1.15213 1.94588 8.84184 140 116 105
-0.215594 1.81672 7.52841 58 38 27
-1.11173 1.85291 8.04864 136 88 86
-1.34509 1.9763 8.67701 122 100 93
-6.18041 1.52352 7.55396 124 118 130
-1.51868 2.02292 8.75588 186 164 152
-0.462933 1.89027 7.38156 58 34 22
-4.15325 2.12791 10.2211 51 16 10
-1.52733 2.05194 8.73248 120 96 84
0.952042 2.16988 8.52171 82 62 54
-0.789916 2.01979 7.86174 242 226 218
-0.576258 2.03759 7.86224 171 158 155
0.0450126 2.14994 8.18237 159 142 132
-6.95367 1.57001 7.2469 132 92 44
0.0509581 2.09874 7.70443 82 68 64
-0.695187 2.07766 7.79313 59 46 40
-0.075173 2.12259 7.71401 106 90 84
-0.00564997 2.13398 7.68956 128 115 110
-0.0333148 2.16972 7.82326 64 47 40
-5.84755 1.82898 7.96257 48 22 31
-0.714955 2.1315 7.75335 178 162 156
0.0806915 2.23382 7.74905 67 49 46
-0.765592 2.21768 7.85525 88 74 72
-5.80669 2.04012 8.03682 130 48 36
-0.689191 2.85668 8.71839 154 135 132
-6.37458 2.20302 7.69415 146 84 50
-0.765082 3.10058 8.84626 93 60 55
-6.31153 2.7552 8.20673 136 56 36
2.99926 -3.83852 9.61628 128 110 66
2.86131 -3.77305 9.47178 149 136 90
2.47368 -2.62492 7.66984 148 125 102
2.58836 -2.56031 7.71789 99 36 18
-2.43947 -2.83075 10.6565 151 144 105
-2.27517 -2.44507 9.81074 64 27 11
2.5417 -2.45827 9.18743 122 114 70
2.48928 -2.32606 8.87714 96 78 54
-2.6286 -2.39887 10.4829 79 48 36
-2.27266 -2.27029 9.83459 178 116 95
2.48126 -2.15902 8.70098 113 86 55
2.90683 -1.85754 7.37951 118 34 28
-5.32779 -1.93424 9.28606 155 109 82
2.67437 -1.79216 7.81047 164 136 124
-5.51017 -1.68331 9.37796 57 23 8
-1.27877 -1.8979 10.3874 138 125 96
-2.42158 -1.74526 10.6111 165 145 110
3.30928 -1.37341 7.3152 158 128 113
3.1749 -1.69331 9.58288 167 161 112
-5.34444 -1.38769 9.30714 124 86 68
-2.43547 -1.58471 10.348 83 37 13
-2.42297 -1.57268 10.4815 94 48 20
-2.28889 -1.53316 10.1751 201 146 117
3.37042 -1.49034 9.37742 111 78 42
3.83776 -1.19064 8.79077 70 56 42
2.97718 -1.23345 9.62381 146 110 83
2.87044 -1.1576 9.29965 90 28 13
3.28443 -1.12469 9.52802 148 82 62
2.97152 -1.11818 9.5706 125 87 66
2.81267 -0.912421 9.18121 80 56 40
-1.48254 -0.78123 10.1801 138 90 72
-1.34116 -0.484407 10.3171 98 80 61
-6.15791 -0.856769 18.1576 68 32 16
-1.70579 -0.356757 10.5161 58 20 10
-6.48447 -0.176302 6.88466 115 96 97
-5.52901 -0.10375 10.1483 134 106 90
3.0085 0.48112 11.2418 136 112 86
3.35029 0.465901 8.94669 65 48 40
3.42577 0.463444 8.93959 98 72 58
3.5295 0.5113 8.86841 65 35 18
4.11962 0.526149 8.83737 70 46 33
3.50922 0.566287 8.97658 118 94 82
3.65771 0.581277 9.11884 146 111 96
3.97016 0.664813 8.94245 48 29 14
3.95233 0.657012 8.7986 122 98 86
4.66705 0.75607 8.90663 99 58 40
3.79615 0.781621 8.93816 84 55 37
-5.99773 0.454431 7.01634 108 86 84
-6.64224 0.47855 6.88926 84 46 38
-6.59776 0.493237 6.74792 72 28 22
-6.57026 0.493535 6.73551 178 136 129
-6.05999 0.518124 6.94424 154 110 112
-5.26725 0.608025 8.07051 148 66 32
4.23559 0.946612 8.88261 186 161 150
2.64162 1.07166 10.5198 112 74 58
-0.828446 1.2057 9.24638 148 91 79
2.92242 1.49804 9.4728 98 75 72
3.92263 1.5234 8.77608 134 98 82
-6.93078 1.0052 7.36588 134 48 32
-6.95107 1.01583 7.35452 170 138 116
3.54848 1.76571 9.81914 235 223 215
3.53036 1.80617 8.95672 132 98 88
4.23978 1.90436 8.68521 134 72 68
-3.35081 1.89516 10.5395 72 32 20
-6.11539 1.35266 7.48024 116 112 120
3.60752 2.12176 9.10764 46 12 13
-1.45329 1.85691 8.71492 112 92 78
-1.27697 1.85652 8.46814 154 130 116
3.85723 2.21647 8.92858 38 20 18
-1.37478 1.91887 8.74994 156 136 124
-5.22861 1.97517 10.5259 182 130 109
-1.08721 1.883 8.31104 154 120 114
-3.87488 2.0346 10.2039 116 68 50
-1.49282 2.0313 8.82973 149 126 114
0.889851 2.12016 8.37966 75 55 46
-1.4669 2.02958 8.62083 120 100 96
-1.10979 2.0856 8.83032 146 114 104
-1.51645 2.05873 8.75191 120 96 84
-0.0111204 2.11934 8.06572 154 138 128
-6.96365 1.56406 7.27497 136 90 38
-0.787287 2.0552 7.83759 202 182 175
-0.545589 2.12497 7.93419 70 60 58
-0.10888 2.10974 7.8241 162 144 136
-5.84614 1.81607 7.93367 58 32 40
-0.699997 2.13736 7.79628 132 116 110
-0.628921 2.17409 7.83132 114 98 94
-0.60662 2.21337 7.74764 56 34 30
-0.03977 2.26653 7.73312 63 41 40
0.107498 2.2727 7.74423 170 158 156
-0.678284 2.25427 7.77646 46 26 20
-6.13197 1.94594 7.751 28 18 31
-6.44463 1.97787 7.55305 50 32 40
-6.42582 2.28017 7.86179 120 32 16
-6.29626 2.56176 8.76742 138 94 87
-6.33222 2.5206 8.51233 160 122 107
-0.821084 3.00387 8.5271 154 126 120
-6.37703 2.62754 8.77407 114 46 21
-6.70308 2.59464 8.23443 145 79 42
-6.74034 2.72013 8.4061 158 88 78
3.37905 -3.75362 9.70093 110 96 64
-1.81706 -2.76985 10.0109 40 23 9
2.75203 -2.81399 9.6002 132 99 60
2.56167 -2.27608 7.38477 132 88 66
-1.99053 -2.51224 9.8417 97 62 44
2.44858 -2.17963 7.92445 93 84 71
2.36665 -2.26303 8.61015 127 106 84
-5.24613 -2.02024 9.21742 118 78 55
-2.60663 -2.28327 10.2271 160 112 89
-2.28627 -2.23875 9.96181 93 38 21
2.79468 -1.87419 7.25621 109 27 18
-2.70027 -2.20948 10.6457 99 88 56
-5.50471 -1.79892 9.30585 119 78 56
-2.45933 -1.99587 9.91863 94 26 10
-4.62317 -1.82477 9.49195 52 12 1
-5.50615 -1.66789 9.29567 57 23 6
-2.41666 -1.7272 10.3814 102 50 29
3.14862 -1.69672 9.53159 167 156 108
3.18255 -1.5911 9.71696 132 110 68
-2.17402 -1.55591 10.3061 210 158 128
3.2505 -1.51767 9.77199 167 152 106
3.41883 -1.50444 9.69726 154 104 80
3.27169 -1.46663 9.40853 130 82 60
3.22918 -1.45534 9.74554 110 72 41
3.71349 -1.26918 8.79056 114 96 80
3.99385 -1.20196 8.99454 68 56 42
3.05077 -1.23442 9.69703 116 68 48
3.86857 -1.12825 9.00851 84 71 56
3.00338 -1.13001 9.26944 143 93 73
2.70982 -1.09273 9.12726 104 60 39
3.28967 -1.13979 9.53445 128 62 41
4.03178 -1.0394 9.02701 152 122 112
3.66014 -0.94293 8.28939 80 23 13
-1.44875 -0.783199 10.2911 135 87 68
-5.33547 -0.633016 9.84285 107 62 48
-1.33978 -0.422216 10.3698 83 63 43
-5.65486 -0.399119 10.1437 63 32 19
-1.64474 -0.362629 10.7136 54 16 6
-5.10865 -0.343888 10.0628 88 42 27
-2.76597 -0.269365 9.14874 96 54 35
-5.34824 -0.134491 10.2123 106 66 57
3.00868 0.207213 10.4768 92 73 59
2.82461 0.204837 9.96762 64 44 28
3.29756 0.232218 10.131 59 38 27
3.04117 0.418412 11.3574 101 78 50
3.3512 0.444315 8.78154 54 22 8
3.48037 0.46343 9.0107 104 74 58
2.82474 0.483885 10.356 57 30 8
3.11187 0.484788 10.0436 167 132 113
3.49549 0.512828 8.82494 52 24 8
4.36966 0.541009 9.13161 77 52 40
3.41922 0.555874 9.16054 87 70 62
3.49251 0.554749 8.94847 83 60 50
3.53064 0.638096 9.30445 66 50 44
-5.94687 0.351335 6.93213 161 128 125
-5.35506 0.510952 8.22888 105 34 9
3.88724 0.793051 9.06377 86 58 38
-6.57987 0.49319 6.81737 178 138 132
-6.03271 0.518563 6.96221 159 134 132
-6.04567 0.532646 7.30724 156 127 130
-6.67441 0.511672 6.94118 178 133 124
-5.27003 0.606808 8.05242 148 66 32
-6.59621 0.519648 6.89634 184 131 124
-6.59925 0.52627 6.79989 154 95 89
-5.90348 0.569403 7.46036 156 118 97
-5.24422 0.886821 8.09331 130 50 30
3.006 1.28723 8.9202 180 156 147
-0.811574 1.21848 9.29292 148 90 78
-6.95864 0.918826 7.46767 137 72 61
3.70349 1.49214 8.5272 154 122 109
-0.933683 1.25206 7.78522 70 14 8
-6.93054 1.00532 7.39796 134 40 25
-6.94075 1.00752 7.27496 165 136 117
3.7064 1.85003 9.1705 126 90 78
0.919964 1.89208 8.30918 102 88 76
-1.43554 1.87142 8.76268 110 92 77
-1.38109 1.90105 8.72115 156 136 122
-6.13765 1.46373 7.52548 28 24 36
-1.09281 1.87328 8.3033 119 78 72
0.840305 2.00249 8.43651 132 108 99
-1.44391 1.96424 8.73448 128 110 103
-1.43364 1.97063 8.67538 144 124 119
-1.5447 1.96022 8.44557 155 136 130
-6.28038 1.52229 7.37026 52 49 58
-1.40154 2.04709 8.76986 100 80 75
-1.09939 2.08929 8.86679 128 97 88
0.0105974 2.09886 7.67627 98 86 81
-5.77612 1.78497 7.92095 65 38 48
-0.105768 2.1613 7.65291 116 99 93
-6.04135 1.80403 7.49953 38 15 28
0.109242 2.2683 7.74716 158 144 142
-5.81486 2.37931 8.56598 129 72 45
-6.73602 2.16819 7.79779 158 83 76
-6.27241 2.26771 8.01786 146 92 79
-0.788552 2.8482 8.51633 122 96 92
-6.57466 2.28977 7.66801 138 34 21
-6.27018 2.40238 8.03042 140 94 75
2.92184 -3.80056 9.49629 154 139 94
2.74891 -3.30912 9.50255 164 155 106
2.49349 -2.91788 8.41427 134 110 94
2.90399 -3.1913 9.73381 164 157 112
2.79642 -2.62079 7.95679 98 18 9
2.50913 -2.85408 9.01708 98 60 30
2.49884 -2.71074 8.77323 122 103 83
2.77828 -2.80523 9.60733 124 72 40
2.73582 -2.49912 9.48162 108 99 54
-2.25193 -2.27346 9.78293 180 118 98
2.54499 -2.10332 8.12831 76 58 51
2.48641 -2.1739 8.66474 118 92 68
-4.74176 -2.08019 9.54081 84 56 36
-2.34521 -2.19575 9.72463 102 45 28
-5.17204 -1.9954 9.27608 148 102 79
-4.5769 -2.09919 9.76506 60 36 11
-5.31747 -1.92355 9.242 164 117 90
-2.64458 -2.14236 10.1605 114 70 48
2.74086 -1.90332 7.99864 106 70 48
-4.6596 -1.85133 9.13248 170 118 97
-4.56716 -1.93911 9.59937 69 30 12
-5.50084 -1.66055 9.2417 54 21 6
-5.01204 -1.60059 9.3861 166 112 98
-4.84983 -1.49603 9.19924 60 16 8
3.09575 -1.68271 9.45007 166 154 106
3.28446 -1.66868 9.82013 120 81 42
-2.43745 -1.58991 10.6694 170 120 88
3.17655 -1.45487 9.28207 128 80 58
-4.44057 -1.32523 10.0324 57 17 4
3.11794 -1.27991 9.84331 116 74 47
2.76503 -1.15901 9.14112 82 14 4
3.70944 -1.16662 9.01479 90 76 56
3.77548 -1.00383 7.9656 114 16 10
4.04395 -0.992929 9.12854 63 51 38
2.8547 -0.906252 9.2517 108 84 70
-5.13384 -0.817528 10.0916 97 50 38
-1.4569 -0.772371 10.239 150 100 82
-6.55213 -0.409015 6.79599 119 114 110
-5.81479 -0.54645 10.2466 126 104 79
-1.26198 -0.524841 10.5362 154 134 115
-1.31278 -0.429898 10.4487 82 60 40
-5.7144 -0.333844 10.0194 146 127 110
-1.85341 -0.287371 10.1568 118 78 60
-5.58955 -0.267938 9.80637 160 106 80
3.87981 -0.072244 8.44701 178 154 144
-2.82872 -0.0757366 8.95382 80 30 14
2.86662 0.229801 10.0418 27 16 4
3.0181 0.400901 11.3092 110 85 58
3.43828 0.465587 8.95904 102 74 60
3.167 0.488665 9.92107 90 52 34
3.33725 0.484571 8.93127 17 8 5
3.74702 0.482522 8.47991 174 146 136
3.4992 0.556263 9.25124 76 60 54
4.06384 0.56946 8.96214 172 141 125
3.63831 0.581345 9.12451 144 116 104
3.44093 0.62083 9.17837 49 34 28
3.49436 0.663323 9.12031 10 8 3
3.97873 0.67707 8.93005 30 13 2
-6.70133 0.356774 6.92405 192 147 138
3.97581 0.710876 8.72297 27 20 14
-6.67568 0.482914 6.90788 182 147 138
-6.62358 0.4813 6.83158 72 30 24
4.29922 0.952174 8.9505 185 161 150
2.63551 1.21457 9.83939 146 116 96
3.86168 1.53129 8.44337 140 100 84
2.73204 1.80994 9.9703 28 16 7
3.38742 1.82575 8.83822 150 126 118
-5.99218 1.25833 7.50537 124 116 118
1.0244 1.92705 8.5053 100 84 71
-1.17882 1.89887 8.75481 154 132 117
0.948637 1.99623 8.34239 202 184 178
-3.85308 2.07926 10.3778 127 79 61
-6.26516 1.51631 7.32071 37 34 44
-1.14395 2.07385 8.7233 148 118 106
0.179281 2.03584 7.77617 146 88 85
-6.97356 1.55 7.26995 124 80 36
-0.759089 2.0673 7.90563 181 161 154
-6.82094 1.59667 7.31895 138 58 32
-0.0653227 2.13268 7.8915 187 170 162
-5.82863 1.80707 7.89451 48 27 36
-0.0784467 2.21295 7.83127 98 81 74
-6.14016 1.90899 7.72045 31 20 32
-6.44508 1.97781 7.55851 50 32 40
-6.37787 2.00802 7.59541 45 24 36
-6.44873 2.26481 8.17212 70 2 2
-6.76591 2.20843 7.96289 162 89 82
-6.33075 2.21487 7.77254 124 19 16
-6.28972 2.30328 8.14506 132 70 56
-6.38395 2.23482 7.81371 144 82 48
-6.32706 2.62472 9.03043 134 92 84
-5.88221 2.62752 8.53834 152 77 42
-6.05681 2.69432 8.5342 129 60 26
-6.74429 2.69599 8.51382 142 56 35
3.30009 -3.73584 9.62431 138 126 92
-1.86608 -2.74512 9.90556 45 26 14
2.68679 -2.19528 7.63175 103 62 38
-5.18505 -2.11395 9.28046 92 60 38
-2.24091 -2.28596 9.85031 178 116 96
-4.58275 -1.90871 9.43154 88 48 32
2.51846 -1.83738 7.89242 138 111 94
-4.63155 -1.83327 9.40679 90 48 38
-2.65392 -2.1092 10.6614 45 24 2
-5.01498 -1.58068 9.18545 140 89 75
-4.95849 -1.41438 9.32095 167 105 86
3.30313 -1.65804 9.89373 120 95 54
-2.42096 -1.59081 10.3822 77 30 8
-1.65995 -1.51922 10.1591 62 18 10
3.16335 -1.46474 9.35165 144 93 69
4.35081 -1.4156 9.8631 52 48 28
3.71782 -1.26777 8.79186 117 96 82
2.8666 -1.28615 9.44327 143 111 80
-4.92681 -1.18503 9.6469 149 90 73
3.7163 -1.09825 8.22495 136 84 73
3.69153 -1.10737 8.76957 102 86 70
3.78009 -1.04956 8.23231 132 47 34
3.27849 -1.13805 9.54418 134 72 52
3.33195 -0.869112 7.72896 148 56 38
2.54476 -0.83104 8.9571 178 146 133
-5.33512 -0.619077 9.59076 108 62 50
-1.28948 -0.543566 10.1026 100 58 35
-6.221 -0.327039 6.96872 38 36 58
-5.60912 -0.272778 10.1625 160 104 80
-5.62554 -0.131089 10.135 94 56 33
-5.46207 -0.12217 9.9677 39 11 4
-5.92916 0.0760666 7.11368 116 45 32
2.97668 0.324518 10.2346 124 96 79
3.2064 0.48699 10.005 94 56 37
3.99601 0.50321 8.83106 178 151 138
-6.46509 0.249653 6.65782 182 70 74
3.47104 0.551541 9.22779 98 78 71
3.89029 0.569916 8.61445 128 105 92
-6.69593 0.369034 6.92319 184 154 146
3.95617 0.709954 8.72135 28 20 14
-6.56034 0.430135 6.74457 176 114 108
3.8487 0.849081 9.03896 123 93 74
-6.63843 0.488698 6.87036 81 42 34
-5.92944 0.582335 7.76576 158 131 107
-5.24326 0.889167 8.2238 139 54 32
2.85576 1.28216 8.63041 174 149 140
-6.94322 0.88492 7.41494 170 132 118
2.88018 1.58234 9.42106 108 86 85
3.28832 1.59133 9.01497 120 86 72
-6.94348 1.00915 7.26251 164 138 120
3.61604 1.82462 9.03872 121 81 67
-0.855965 1.48751 7.84561 76 14 15
3.54687 1.87512 9.08053 156 131 124
3.4956 1.93286 8.7112 92 10 12
-2.41133 2.00966 11.0755 195 142 112
-6.10803 1.32104 7.32301 126 120 126
0.811549 1.86462 8.17304 98 80 68
-1.06627 1.91223 8.90829 124 64 54
-6.01379 1.45726 7.6078 102 97 108
-1.08575 1.95383 9.05622 156 134 119
-1.37733 1.91245 8.73585 158 136 124
-1.11512 1.85764 8.24745 124 82 76
-1.15787 1.90914 8.05129 101 70 63
-1.39796 2.01838 8.67892 93 70 64
1.00434 2.15192 8.59902 80 56 46
0.749821 2.11842 8.3521 150 128 117
-1.09138 2.12171 8.91344 150 123 111
-6.25687 1.56282 7.33821 46 41 53
-1.28342 2.13805 8.95169 150 127 117
-0.586142 2.00648 7.88885 140 128 126
-6.96957 1.53647 7.23907 125 80 35
-6.77993 1.55988 7.10785 137 54 32
-0.110262 2.11674 7.82976 162 144 136
-0.0458496 2.18629 7.60249 38 24 17
-0.898703 2.20912 7.9342 137 62 58
-0.52527 2.2182 7.83861 134 116 113
-6.07045 1.83545 7.59144 28 16 30
-5.88994 2.08453 8.28524 132 54 36
-5.82577 2.06939 8.22055 128 24 24
-6.44643 1.98549 7.56944 43 26 34
-0.862418 2.81469 9.10678 82 54 44
-6.16457 2.14358 7.61597 161 115 106
-0.896003 2.68456 8.20367 151 116 110
-5.81973 2.39274 8.5476 130 68 38
-6.75011 2.19183 7.87057 170 106 98
-0.759794 2.87466 8.58554 138 112 107
-6.37214 2.17218 7.41924 121 24 16
-6.28773 2.53042 8.66585 140 100 94
3.24698 -3.71109 9.53332 123 110 76
-2.64408 -2.58497 10.7994 154 148 106
2.82146 -2.07534 7.39643 90 42 19
-1.87456 -2.36399 9.90024 120 80 66
2.57201 -2.33267 9.07919 92 74 43
-4.61109 -2.14759 9.89642 56 35 13
-2.34445 -2.18209 9.68803 90 34 18
2.74984 -1.9461 7.7797 99 28 24
-2.68101 -2.33421 10.8515 121 113 74
-5.4539 -1.86335 9.30989 120 78 58
-4.9107 -1.83798 9.18017 56 24 12
2.77528 -1.81283 7.96062 154 122 108
-4.63024 -1.82635 9.40137 80 36 25
-2.56133 -2.19668 11.1643 60 38 17
-2.40202 -2.03762 10.254 102 32 17
-5.42699 -1.75254 9.23523 52 22 11
-5.30535 -1.77469 9.36001 168 117 91
3.4826 -1.86793 9.68461 86 34 8
-1.1594 -1.68877 10.3157 72 50 25
-1.63516 -1.62562 10.1253 120 74 59
-4.87999 -1.43903 9.44338 198 140 118
-2.43728 -1.60303 10.2892 89 43 22
3.17135 -1.6221 9.68382 118 88 48
-5.34589 -1.35914 9.12891 122 82 64
-2.27752 -1.55558 10.152 160 104 78
-2.20608 -1.55937 10.2 174 120 92
3.80841 -1.113 8.91495 100 84 69
2.80604 -1.11925 9.46132 139 102 70
3.77607 -0.930831 8.43057 90 37 28
-1.51935 -0.773971 10.061 129 82 65
-2.38752 -0.707236 9.74993 117 70 46
-6.52071 -0.476167 6.85157 114 110 100
-6.44615 -0.351708 6.75059 90 87 117
-5.72772 -0.411455 10.0044 161 143 123
-3.72545 -0.26895 8.85304 210 154 118
-5.60489 -0.274955 9.94858 152 98 72
-2.841 -0.0765297 9.04305 83 32 18
-5.56131 -0.0830351 10.3733 162 140 122
-2.93031 -0.0225756 9.03837 178 124 110
-5.41747 0.0962069 9.98028 124 86 65
3.10733 0.38998 11.4679 115 94 66
-6.51258 0.267096 6.92564 181 69 72
3.84869 0.629874 9.72129 50 36 30
4.07758 0.617807 8.86064 148 123 111
3.18504 0.623407 8.76793 10 8 6
3.93867 0.677277 8.87974 29 10 0
-6.64186 0.361423 6.72851 184 155 149
4.03777 0.710664 8.81902 25 20 14
-6.59595 0.491515 6.88274 172 130 124
-5.23326 0.862927 7.97473 134 42 26
-0.996475 1.10405 8.70676 144 104 90
-3.52587 1.54564 10.2058 140 94 74
-3.17483 1.90929 10.7365 100 65 53
-1.50777 1.88755 8.67601 95 74 61
-5.22 1.96428 10.461 180 130 110
-6.00202 1.51012 7.59041 26 18 34
-1.18257 1.87484 7.93548 111 85 81
-1.53187 1.97306 8.54039 114 95 88
-4.11877 2.21257 10.6566 52 16 10
-5.30403 2.13563 10.4579 178 128 99
-1.31756 2.11549 8.83501 150 127 117
-0.506727 2.00985 7.80931 142 122 118
-0.693005 2.06974 7.78582 109 94 88
-1.0092 2.12861 7.68822 142 42 40
-6.13817 1.8934 7.68904 32 19 30
-6.44225 2.04956 7.80381 45 31 46
-0.630844 2.80655 8.54707 145 117 114
-0.275247 2.77321 8.28137 129 87 85
-6.38088 2.22441 7.7727 144 80 49
-6.21363 2.44651 8.45392 80 12 11
2.78677 -3.71387 9.30862 102 81 39
3.36605 -3.48908 9.0651 129 113 75
2.77007 -3.10781 9.51071 160 149 104
2.42532 -2.86245 8.93337 152 116 78
2.76731 -2.62425 7.89749 102 12 8
-1.74686 -2.6112 9.90715 44 28 16
-1.81802 -2.19361 9.68725 116 78 61
-2.56853 -2.20244 10.0106 60 12 4
2.7195 -1.79464 7.38644 91 32 30
2.75603 -1.8516 8.07026 90 54 30
-5.3335 -1.77721 9.31715 166 116 86
-1.42399 -1.80876 10.2385 38 14 9
-5.38253 -1.52977 9.20591 170 120 100
3.4569 -1.68851 9.50279 118 65 33
-1.66057 -1.62623 10.0264 120 72 58
-4.92812 -1.40612 9.17583 184 120 102
3.34692 -1.42284 8.69211 134 128 82
3.75204 -1.34358 8.95984 82 70 50
-1.54554 -1.33878 10.141 127 82 64
3.91423 -1.07343 8.9482 116 90 78
3.96667 -1.00685 9.41932 90 70 52
-6.37671 -0.534922 6.81982 104 100 93
-6.62371 -0.386358 7.17147 104 100 100
-1.82762 -0.33619 10.0583 58 19 8
-5.56414 -0.0696653 10.1334 158 142 122
2.98458 0.381841 11.3262 150 137 112
3.26812 0.464079 10.0529 90 54 36
3.5092 0.573003 8.96609 138 109 96
3.32253 0.606067 9.0169 26 16 12
2.59214 0.691357 10.1873 142 118 103
-6.58939 0.481938 6.84621 186 144 140
0.280746 1.09218 8.44242 124 54 39
-5.23387 0.899149 8.26936 130 30 18
-5.98165 1.31227 7.51688 28 22 34
-5.93744 1.96807 11.895 150 100 88
-1.12342 1.86039 8.69854 110 23 16
-1.28111 1.75891 7.81538 111 65 56
-1.31905 2.00161 9.25703 91 72 56
0.0433506 1.99358 7.83604 140 90 83
-0.818261 2.03162 7.8326 152 132 122
-6.76332 1.55384 7.08272 136 39 25
-6.10055 1.84175 7.45307 28 17 31
-6.39966 1.98809 7.51726 31 20 35
-6.37512 2.12421 7.65759 72 2 2
-0.86867 2.94728 9.13923 119 88 82
-5.84315 2.43693 8.51898 126 44 24
2.86137 -3.31285 9.7474 164 155 101
2.71396 -2.82509 9.55679 163 150 104
-1.97796 -2.552 9.81697 78 45 28
-1.79433 -2.4329 10.0072 90 56 40
2.33332 -2.3416 8.88345 134 127 81
-1.67838 -2.30821 10.0969 68 35 22
-5.07256 -1.80979 9.13413 34 14 8
-1.29311 -1.94334 10.3024 75 64 34
-1.61123 -1.75017 9.71843 36 18 12
-2.32683 -1.71959 10.8136 66 22 4
2.96792 -1.61649 9.37336 118 84 42
3.83527 -0.999788 9.25045 94 74 56
-4.97623 -0.920482 9.7852 101 44 26
-5.33019 -0.421751 9.93576 102 58 46
-1.75643 -0.374096 10.3045 66 30 19
-1.30511 -0.396215 10.8679 90 50 34
-2.42358 -0.00739965 9.80548 104 55 37
3.55308 0.413587 8.87945 164 110 86
2.97567 0.554691 10.117 128 96 78
-5.91813 0.538988 7.5512 136 86 63
-5.90818 0.657902 7.72119 74 8 4
-5.84097 0.668668 7.7388 104 48 18
2.76822 1.09315 9.75163 132 62 40
2.55078 1.33395 10.169 64 40 22
-0.471677 1.25114 10.0611 147 111 95
-2.80952 1.88045 10.995 178 127 99
-3.11225 1.99615 11.2472 104 70 60
-1.9969 2.08535 11.4709 169 116 90
-6.19502 1.3324 7.33109 31 22 36
-6.16028 1.35112 7.53295 62 54 64
-3.2165 2.07887 11.2113 108 74 64
-1.13068 1.91991 8.96949 154 133 118
-3.40152 2.05527 10.1919 74 36 26
-5.20942 2.15444 10.4406 200 148 116
-0.673917 2.0804 7.81511 70 56 51
-0.15244 2.06823 7.54469 100 84 78
-0.286849 2.21058 7.78225 136 60 56
-6.1153 1.8829 7.7221 26 16 31
-5.80155 2.16342 8.24875 156 122 98
-0.878369 2.61311 7.94056 144 69 66
3.98345 -3.60693 7.85203 214 161 137
4.03085 -3.47742 7.75648 194 145 123
2.50674 -2.20394 7.98102 112 97 82
-2.26976 -2.27495 9.8877 177 116 90
-4.79241 -2.00937 9.4162 86 52 30
3.39992 -1.72443 7.14703 116 92 85
-4.89185 -1.86433 9.31122 74 35 20
3.32051 -1.68994 7.17811 112 86 76
-5.50205 -1.79612 9.30756 124 82 59
2.70853 -1.75872 7.86243 142 114 98
3.4129 -1.62642 7.17386 64 45 40
4.49267 -1.56031 8.5233 64 31 16
5.214 -1.54992 9.12614 73 56 47
-4.87396 -1.04846 9.77585 206 149 116
-3.2446 -1.02522 11.5525 108 66 44
3.04639 -0.451604 9.426 48 14 4
-1.34637 -0.487476 10.315 93 72 50
-3.68528 -0.331313 8.83534 223 168 130
-6.25233 -0.203756 6.91419 105 96 102
-6.25466 -0.141243 6.97906 148 132 116
3.0142 0.255639 10.1018 84 48 20
-5.96591 0.315905 6.94322 142 81 79
-0.324672 0.999639 8.01107 122 102 79
-0.32694 1.23695 8.01842 126 76 63
4.54554 1.6213 8.57871 137 105 92
-0.52864 1.77584 7.47062 88 78 66
-6.04753 1.49928 7.59742 28 25 37
0.0450117 2.13357 7.73861 74 62 58
0.0412972 2.10144 7.59707 153 138 135
-0.00173176 2.18599 7.74281 53 38 30
-5.887 2.06768 8.0403 124 38 15
3.90542 -3.52082 7.81342 172 121 91
2.82183 -3.71199 9.23489 101 84 40
3.13434 -2.32792 7.20069 156 114 86
-2.6094 -2.28255 10.2645 134 88 69
-4.55303 -1.99454 9.81112 94 57 36
-5.51441 -1.71988 9.29987 122 78 52
-2.40195 -1.63427 10.5449 90 44 20
-6.25543 -0.148185 6.98979 156 142 126
3.87829 0.615031 8.64714 165 137 124
-6.70794 0.351064 6.94648 192 140 128
-6.01778 0.521444 7.0055 160 129 126
-6.64416 0.54017 6.96468 164 96 90
-0.403777 0.998882 8.08602 138 119 100
-6.97252 0.918931 7.48976 153 102 84
-6.1292 1.3876 7.49794 58 52 62
-4.16854 2.11999 10.1412 58 23 12
-0.416662 2.08173 7.91236 152 112 110
-0.615142 2.09196 7.92929 100 84 78
-0.521745 2.13841 7.92653 100 88 88
-6.36428 1.94377 7.54627 49 29 40
-6.37226 1.98495 7.60632 70 50 60
-6.3626 2.00334 7.53422 45 20 32
-0.362748 3.05845 8.54578 84 64 64
-6.82513 2.83778 8.5667 122 34 24
-5.46925 3.11633 8.49155 123 33 32
3.85311 -3.60373 8.04023 124 94 51
3.80104 -3.5386 7.99783 158 130 90
3.19477 -1.30106 10.0271 103 68 30
-4.17042 -1.07245 9.98811 96 58 29
4.4804 0.215075 8.66349 100 64 50
-5.28211 0.123957 10.2767 114 82 66
-5.99157 0.32392 7.06164 148 90 90
-6.63713 0.480951 6.89357 92 48 42
3.76924 1.15134 8.56144 121 80 60
-0.327392 1.0055 8.01265 106 84 62
0.398686 1.10747 8.58372 135 84 62
3.23342 1.5966 9.04591 118 82 68
-0.883301 1.40072 7.76258 95 28 22
-5.88594 2.06671 7.99283 120 27 9
-6.43862 1.97215 7.52054 44 28 38
-6.35509 2.14325 7.60367 62 0 1
-6.22303 2.42355 8.49223 86 22 8
-0.288285 3.00806 8.53318 64 36 35
-6.7321 2.62564 8.35777 147 80 52
-6.82629 2.82569 8.55305 145 83 70
3.23677 -3.68603 9.50174 132 122 82
2.41395 -2.50461 7.67146 138 96 70
2.76356 -2.31955 7.438 105 8 4
-4.68381 -2.13906 9.63751 38 22 8
-5.49892 -1.78404 9.32663 128 86 62
-1.60855 -1.41263 10.2407 66 22 12
-4.92011 -1.17863 9.65998 144 86 68
3.01881 0.471316 10.2689 92 52 28
-6.48838 0.261565 6.87039 180 64 65
-5.97508 0.320574 6.98047 148 89 90
-6.0548 0.515645 7.05487 162 128 124
-5.87372 0.614976 7.55837 129 90 64
-6.79938 0.817254 7.47486 167 136 120
3.4758 1.38864 9.42843 204 172 161
3.69006 1.36131 8.62332 87 44 22
3.84556 1.51949 8.66256 170 137 124
-6.97137 1.01513 7.40558 166 139 118
-6.21866 1.63137 7.47036 18 14 26
0.228059 2.32148 8.08672 96 80 77
-5.68442 1.99271 8.19603 120 24 23
-5.85213 1.98324 7.97498 82 2 5
-5.90245 2.07292 8.04864 126 22 15
-0.980414 2.63086 8.56796 110 58 49
-6.57264 2.29243 7.67171 135 32 19
-1.9723 -2.51994 9.8464 110 70 45
-2.50733 -2.43469 10.1593 162 108 84
-2.3132 -2.20191 9.85655 86 32 16
-2.54247 -2.21071 10.0575 90 40 27
-5.46673 -1.90172 9.38512 104 66 46
-4.87094 -1.51318 9.30926 127 74 63
4.09701 -1.30529 9.6981 90 84 56
3.70137 -0.974304 9.05747 102 84 66
-6.54555 -0.300234 6.77622 84 81 86
-6.72838 0.311155 6.88748 152 64 54
-6.05565 0.34659 6.91082 120 39 44
-5.96543 0.387631 6.99588 163 146 142
-6.60081 0.514137 6.90407 161 114 104
3.72541 2.20126 9.0542 154 126 120
-5.82061 1.79512 7.87789 67 52 56
-0.778732 2.15606 7.85876 100 88 82
-0.994083 2.63644 8.5586 103 59 49
-6.67018 2.59196 8.09847 138 50 25
-6.77362 2.74769 8.48043 161 107 88
2.72355 -3.65887 9.15467 97 72 31
2.55562 -3.07521 8.79811 143 120 98
-2.15589 -2.41785 9.80316 126 82 64
-2.50532 -2.43164 10.0679 168 113 90
2.43092 -2.22822 8.66604 112 82 50
-4.70126 -2.18187 9.77558 36 19 6
-5.24128 -1.85474 9.2436 156 107 81
-1.57288 -1.31899 10.1515 129 80 62
-6.23139 -0.18972 6.90152 154 142 126
-5.21827 0.0618138 10.1438 59 22 14
-6.75337 0.306685 6.99959 145 48 40
-6.62933 0.486579 6.8299 88 48 40
-6.76651 0.807229 7.27646 167 136 121
-6.15142 1.05619 7.31437 67 0 0
-6.03146 1.2802 7.51595 30 22 32
0.0350625 2.12095 7.76061 87 73 68
-0.901564 2.10828 7.90558 158 106 99
0.119034 2.29116 7.76428 164 147 146
-6.86001 2.89302 8.72068 134 54 41
-6.56556 2.93137 8.28044 174 89 42
-2.44124 -2.53585 10.212 108 62 46
-2.73035 -2.28027 10.5242 119 108 66
3.29868 -1.82263 9.46286 160 130 92
-1.21706 -1.81748 10.2945 84 68 28
-1.96351 -1.73992 10.0126 56 22 10
-4.46931 -1.34311 10.1388 50 16 6
-1.30103 -0.801288 9.95741 23 6 3
-1.21788 -0.648253 9.98519 96 66 44
-5.71705 -0.246394 10.0728 143 124 100
-6.50945 0.259634 6.8782 184 68 69
-6.75632 0.301615 7.0256 146 38 34
-6.74723 0.362265 7.21759 192 144 135
-5.28858 0.430325 8.30722 164 128 110
-5.60687 0.578878 8.03892 156 140 118
-6.74121 0.530026 7.04553 144 65 52
-6.7033 0.571111 6.99512 145 39 34
-6.82874 0.801346 7.4664 162 142 122
3.18576 1.57582 8.89188 129 93 77
-0.60199 2.11738 8.02104 98 82 78
0.0556334 2.27197 7.67083 137 120 118
-6.54065 2.90539 8.23858 180 112 46
-1.91938 -2.08495 9.90247 154 100 80
-1.16896 -1.58974 10.1027 138 133 87
3.98715 -1.41365 9.55118 106 98 60
-4.89282 -1.23066 9.48947 170 108 86
-1.32686 -0.834788 9.90416 24 8 3
-1.14574 -0.808653 10.0789 124 100 80
-1.16978 -0.685442 10.1763 100 68 46
-5.61484 -0.431215 10.0005 52 18 7
-5.3742 -0.0995858 9.98545 92 50 32
-5.40464 0.0731264 9.62435 116 78 52
-6.5034 0.242573 6.84872 162 38 40
3.65652 0.50517 9.22287 38 22 16
-5.20433 0.415954 8.97353 160 112 92
-5.32556 0.49826 8.17476 114 24 5
3.33081 1.35276 9.33935 182 155 146
3.2803 1.5446 9.01521 144 108 96
-6.22957 2.48218 8.56287 82 6 8
-6.59266 2.26489 7.67416 144 32 24
-5.95209 2.66845 8.74405 142 60 24
-5.69276 -0.433828 9.96762 64 30 8
-5.87682 0.598582 7.56798 90 48 26
-0.671062 2.18705 7.85844 84 66 60
-4.88486 -1.85725 9.2107 76 40 23
-1.10836 -0.984963 10.0245 139 98 73
3.02503 -1.57431 7.60913 167 138 128
-1.4266 -1.31725 9.96274 144 96 78
2.8259 -1.79629 7.61879 31 6 4
-1.14009 -0.987111 10.0309 156 108 84
2.87516 1.66957 9.41091 96 71 70
2.71191 -2.35769 7.59519 133 86 62
-5.58312 0.573575 7.74911 148 124 94
-4.97853 0.575824 8.2733 120 27 22
-5.20015 1.84759 10.4331 182 134 111
3.63547 1.24581 8.23953 130 86 62
-0.406611 0.935405 11.3473 102 82 48
-2.33252 -2.17914 9.84364 111 52 30
-0.871337 1.41854 7.78124 86 28 22
-0.592261 2.19275 7.83923 74 58 50
-0.73971 2.89168 8.64396 162 138 132
-3.3967 0.784531 1.28647 68 60 62
-6.44941 -0.360306 6.74926 73 72 101
-5.71051 -0.335581 10.0262 144 124 103
-6.31745 -0.520342 6.87962 65 63 68
-6.23663 -0.476521 6.84252 48 49 55
-6.1894 -0.354638 6.90967 83 74 72
-6.02942 0.474587 7.09184 110 84 86
-5.81085 2.539 8.61981 142 86 78
-6.44013 -0.510791 6.7803 104 98 92
-6.32154 -0.51432 6.882 36 39 55
-6.50622 -0.462583 6.77725 86 86 86
-6.20912 -0.415287 6.88851 44 40 56
-6.21178 -0.294974 6.90359 41 38 56
0.161391 2.03867 7.78929 152 124 122
-5.15035 -1.89045 9.23332 32 13 8
-2.62083 -1.39569 10.5176 116 86 50
-5.57451 -0.308334 10.0826 158 104 76
-6.04519 0.452176 6.86265 160 144 146
-1.80921 -2.20442 9.81525 116 77 54
2.87157 -1.81034 7.60095 91 54 50
-2.82053 -0.630919 4.95534 90 58 36
3.70468 2.19307 8.87299 42 22 16
-0.815548 2.84564 8.55754 126 95 90
-0.669083 3.11197 8.72076 98 67 60
3.86207 -3.5183 7.97714 131 80 46
3.6785 2.03441 8.8984 150 88 66
-0.0694574 2.15579 7.77171 90 72 66
-3.2641 -1.0325 11.4936 117 72 47
-2.92471 -0.0621398 9.04597 94 44 33
-3.88546 2.03795 10.1197 125 78 58
3.84372 -3.50725 7.97206 122 75 39
-2.88701 -0.0592209 8.98819 117 63 50
-1.45424 1.87467 8.73322 92 72 56
-1.67416 -1.4308 10.0695 64 22 11
-1.61535 -1.25722 10.1621 80 32 16
0.813135 1.87151 8.24183 92 74 60
-5.90119 2.64984 8.65837 148 76 38
2.45203 -2.79424 7.92122 128 106 79
2.66624 -3.07785 9.30989 124 96 56
-1.02489 1.95908 9.20888 158 136 120
-5.83337 2.42544 8.55034 124 46 20
-5.23179 -2.03171 9.27686 114 74 50
2.65497 -1.91896 7.63657 122 34 28
-1.10559 -0.808381 10.1977 155 138 117
-6.02375 1.30665 7.42136 20 18 32
-6.28912 2.29282 8.29756 158 109 96
-6.05229 2.41372 8.42739 154 96 33
-0.646734 3.09075 8.71305 82 47 39
4.08891 -3.57873 7.73734 168 121 96
2.61855 -2.06836 7.24247 144 98 76
3.54009 -1.6871 7.09422 92 73 66
3.40784 -1.65598 7.03373 212 194 188
4.38251 0.046517 8.36044 174 138 118
3.64683 0.0170749 8.45033 54 16 0
-5.10399 -0.340553 10.0648 109 58 34
4.39957 0.11492 8.43914 178 144 126
4.84617 0.392876 8.87022 76 44 22
3.87678 0.536003 8.597 68 46 35
-5.97386 0.356979 7.11229 158 112 111
-6.66604 0.522823 6.9374 172 125 118
2.69252 -2.09425 7.3468 138 92 70
4.19671 -0.106554 8.25333 58 28 22
4.46453 0.256058 8.74083 146 109 86
4.87187 0.384717 8.90213 92 60 38
5.16062 0.606213 9.1787 52 30 17
4.89608 0.675174 8.93009 54 33 16
-6.7454 0.330065 6.9753 146 54 45
-6.09504 0.465595 6.90809 134 54 60
-6.06914 0.513434 6.95414 164 126 130
-6.80859 0.824471 7.46672 176 125 110
3.89872 2.21554 8.91286 114 78 74
-5.99699 1.46104 7.64555 116 110 122
-5.82639 2.04128 8.07287 114 26 10
3.87036 -3.50674 7.74748 146 94 65
-2.60228 -0.67413 9.85176 144 99 72
-6.08718 0.497218 6.93212 150 104 107
3.90205 2.21704 9.00743 46 23 21
-5.84388 1.81761 7.95409 50 27 32
0.412357 2.66431 8.17147 142 45 42
-5.10062 -0.341359 9.97401 92 44 24
-6.48578 -0.169531 6.87164 141 128 121
-5.28676 0.13128 10.3345 154 128 108
-5.66367 1.96481 8.1695 126 44 41
2.71144 -3.1998 9.07706 146 123 106
-5.41559 0.068474 9.70312 108 75 54
-6.48641 0.268877 6.82585 189 80 80
0.417187 1.11631 8.66937 128 66 50
4.04238 1.39698 8.71105 95 53 31
2.79929 1.91545 10.1184 144 120 106
3.80603 2.02276 9.61164 102 54 55
-5.66605 1.16662 7.79699 162 122 104
-5.69074 1.99281 8.11905 126 24 24
-0.753519 2.89159 8.71234 116 88 80
2.75628 -2.73934 8.06959 152 130 110
2.60256 -2.7478 9.34046 137 108 68
2.31713 -2.56066 8.78355 148 133 89
2.37069 -2.2597 8.73486 98 82 46
-4.44031 -1.29407 9.66075 46 10 4
-5.54746 -0.113906 9.68752 130 100 80
-6.57949 -0.124765 7.23363 156 142 124
2.65624 1.34803 10.4026 89 65 49
-6.61793 0.377832 6.82119 177 110 106
-6.05623 1.30222 7.60779 34 27 39
0.00240409 1.97184 7.73904 138 80 76
-6.12689 1.35148 7.43404 121 115 120
-0.535172 2.21078 7.82485 134 116 112
-5.68717 1.97755 8.24878 128 28 26
2.56401 -3.21298 8.89752 134 104 78
-5.27265 -1.89391 9.44651 154 104 80
-5.35808 -0.64315 9.88607 98 52 38
-6.25006 -0.184501 7.00463 156 142 127
-6.57348 -0.143399 7.11391 156 140 124
-5.29059 0.133812 10.1283 160 134 114
-4.82555 0.272628 10.2059 156 107 84
-5.96005 0.0959722 7.2868 116 30 22
-6.19294 1.36148 7.35981 22 18 32
0.103766 2.02947 7.67631 138 122 120
-0.642243 2.07154 7.75496 93 80 76
2.70549 -2.75215 7.99822 154 134 114
2.79741 -2.47547 9.55072 107 94 54
-2.70061 -2.21903 10.2862 46 26 14
-4.79484 -1.62216 9.46896 134 80 65
-5.51928 0.0637334 10.9628 97 59 38
-5.99659 -0.0107379 7.24245 152 118 100
-5.97403 0.0928881 7.30626 118 26 20
-6.04988 0.449986 6.80633 158 144 144
-6.64616 0.466702 7.03522 180 142 138
-0.602055 2.43101 8.65067 142 94 91
-5.79405 -0.575838 9.89049 134 108 84
-4.99695 -1.76219 9.2469 105 56 44
-1.87918 -1.89872 9.94437 134 82 64
-5.34149 -0.130298 9.85216 68 36 30
-5.02301 -1.15734 9.65449 30 9 3
3.76513 -0.0850484 8.77471 148 104 82
5.78329 1.73448 11.0115 156 106 86
3.82841 2.17113 8.95063 62 30 24
3.80862 0.603082 8.6544 122 97 85
0.07361 2.19894 7.85238 74 56 50
-5.18671 -2.10557 9.19224 89 55 35
-3.07038 -0.611018 12.7199 90 46 28
2.69696 1.68246 10.0894 93 83 68
2.81365 1.45158 9.68202 164 124 118
-2.33338 -2.47358 9.93955 82 40 26
-4.70832 -2.1253 9.94246 113 81 66
0.0255732 2.19327 7.75705 54 38 32
-0.0451259 2.2577 7.74181 46 26 22
-6.20518 1.63585 7.47322 18 14 23
-5.19147 -2.11875 9.32956 92 60 39
6.39322 -1.80975 11.7901 90 55 39
-6.49292 0.270813 6.88551 182 68 70
-6.01087 0.49751 7.01017 149 130 132
-6.05527 0.506763 6.92656 166 135 138
7.11662 -0.440307 12.7775 118 80 60
-6.51606 -0.162469 6.95096 134 118 110
