ply
format ascii 1.0
element vertex 1187
property float x
property float y
property float z
property uchar red
property uchar green
property uchar blue
end_header
0.611391 0.0222998 0.138491 0 255 0
0.269758 -0.0036161 0.0191562 0 255 0
-0.188432 0.00613826 0.0530455 0 255 0
-0.757188 0.15266 0.0458214 0 255 0
-0.380381 0.111971 -0.0866441 0 255 0
0.571788 0.0761152 -0.26585 0 255 0
1.25261 0.0748526 -0.360896 0 255 0
1.80161 0.06733 -0.569808 0 255 0
2.66179 0.00664899 -0.436798 0 255 0
-2.13232 0.283421 -0.606177 0 255 0
3.80443 1.25969 12.6125 0 255 0
1.24847 2.23452 13.1784 0 255 0
0.533239 -0.798094 0.0124515 0 255 0
-0.751046 -1.91668 6.47528 189 196 205
-2.57658 -2.20581 7.77101 186 188 192
0.112727 -1.56213 6.32498 166 114 122
0.0438023 -1.50599 6.25067 228 180 190
0.173807 -1.46211 6.21873 172 120 133
0.182389 -1.45019 6.21913 193 154 167
-4.24535 -2.13706 10.5398 182 182 188
1.82338 -1.77357 8.55218 195 208 227
1.56922 -0.625644 3.25428 184 204 234
0.112564 -1.02605 6.17117 182 78 38
-0.0136454 -0.984009 6.23108 165 134 137
0.330372 -0.661771 6.17734 190 32 62
0.286987 -0.56781 6.01084 192 46 70
0.148779 -0.559768 6.13014 200 90 38
0.149006 -0.552135 6.20182 188 71 26
0.0203767 -0.436303 6.14514 142 32 19
0.482641 -0.464959 6.28407 172 73 100
0.369127 -0.432178 6.20105 174 128 134
0.188571 -0.416596 6.08115 167 108 87
0.199148 -0.418335 6.10574 164 111 92
0.114349 -0.403915 6.08178 122 48 26
0.492707 -0.432359 6.30709 204 202 216
1.22348 -0.255784 5.06553 192 204 221
0.627531 -0.383686 7.7214 191 201 213
0.0396615 -0.279595 6.16624 202 194 140
0.240123 -0.20857 5.98061 164 162 162
0.152165 -0.196568 6.04423 182 176 136
0.434132 -0.162783 6.03199 201 204 184
0.447732 -0.170162 6.09793 200 207 190
-0.052417 -0.137941 5.98428 179 182 177
-0.0559977 -0.127667 6.02476 164 164 150
0.474438 -0.0927623 6.02916 177 194 196
0.427257 -0.0688389 6.07078 177 192 201
0.190253 -0.0478255 5.97092 96 54 28
0.373039 -0.0495205 6.04605 162 174 184
0.410829 -0.0471815 6.12376 180 206 232
0.0901847 -0.028379 6.10171 128 112 84
0.249257 -0.0278583 5.99554 159 130 128
0.432049 -0.0383284 6.13807 196 220 235
0.449023 0.00589822 6.27347 206 229 234
0.193608 0.0226509 5.97409 177 174 152
0.525491 0.0116883 6.29999 196 218 229
-0.0590448 0.0886484 6.37204 186 141 116
0.544289 0.0859601 6.13836 194 212 218
-0.237134 0.120996 5.9038 166 112 114
0.0805745 0.160527 6.03404 200 134 130
0.872269 0.182482 7.85535 172 180 196
0.172362 0.225683 6.01211 178 151 125
0.131296 0.229728 5.89966 206 173 173
-0.189098 0.243224 5.70083 145 40 25
0.17203 0.236158 6.01718 168 140 117
0.174118 0.249612 6.02208 152 125 100
0.551327 0.27192 6.18949 222 196 21
-0.0236789 0.307625 5.71146 188 86 90
0.224068 0.315122 6.02242 172 168 145
-0.343485 0.3359 5.85591 189 153 137
-0.0384345 0.309428 5.65174 192 62 78
0.153586 0.321534 5.86039 186 166 153
-0.048518 0.330148 5.65621 144 40 57
0.121709 0.360871 6.05438 144 72 18
0.68367 0.352751 6.36756 214 184 43
0.154697 0.359434 5.97898 133 115 62
-0.325829 0.395451 5.91914 122 73 63
0.15479 0.398837 6.12178 116 96 30
0.779432 0.415834 6.60885 204 190 116
0.488421 0.418958 6.25809 227 198 28
-0.185474 0.420325 5.76124 140 100 92
-0.156819 0.435125 5.99473 148 122 97
0.564611 0.420695 6.27487 242 209 46
0.23741 0.443831 6.16768 162 140 46
0.103614 0.455911 6.06796 148 110 0
0.0522356 0.474486 6.07132 142 105 0
0.376633 0.484785 6.23325 222 188 0
0.550738 0.500127 6.3035 232 209 74
0.68468 0.48122 6.2773 221 172 0
4.27918 0.522144 8.22871 156 160 165
4.31375 0.540239 8.36974 157 158 162
0.740401 0.521826 6.43666 202 162 4
4.35218 0.549695 8.34496 150 148 142
0.480795 0.532666 6.16099 218 194 66
0.810656 0.548071 6.46122 208 184 96
0.577604 0.540318 6.37346 245 213 46
0.405454 0.570929 6.22437 223 194 8
0.0742994 0.551843 6.09353 148 104 0
0.0678529 0.594537 6.15697 149 106 0
0.742015 0.581207 6.34992 170 126 60
0.195674 0.588145 6.0806 156 129 55
0.366761 0.611487 6.32751 164 133 46
2.12992 0.750473 8.38006 166 152 140
2.11994 0.735388 8.24286 165 150 138
1.83608 0.774922 8.32873 164 149 138
1.71781 0.773592 8.23764 161 144 138
0.0255327 0.633081 6.05054 166 144 104
-0.228829 0.668545 6.38732 176 153 66
0.500141 0.677917 6.39019 231 124 0
1.52644 0.838869 8.11229 136 108 78
-0.253173 0.753311 6.43933 167 152 125
1.84774 0.830011 7.91768 152 120 82
1.42689 0.838956 7.61015 138 106 74
1.72785 0.819669 7.73917 146 114 73
1.74562 0.796359 7.52756 150 118 78
-0.252037 0.788245 6.63361 168 142 72
1.52817 0.835833 7.63525 144 112 74
0.435244 0.71233 6.13439 122 88 90
1.67044 0.839542 7.42035 146 114 72
0.0886542 0.732501 6.12727 192 98 2
-0.0843521 0.769781 6.10778 144 132 64
0.886742 0.778278 6.50432 162 126 48
0.665336 0.777564 6.30295 238 122 26
0.0486841 0.789315 6.11061 142 97 78
0.561073 0.786861 6.26156 237 140 18
1.2465 0.840973 7.06172 136 104 73
-2.58703 1.15163 8.0611 150 125 92
0.115601 0.820816 6.20299 155 96 0
0.356382 0.82093 6.21907 73 18 15
0.316058 0.811951 6.14125 65 12 9
1.05132 0.939046 7.22001 139 106 72
0.413528 0.844237 6.14254 62 12 2
0.0032133 0.867682 6.05245 150 182 170
0.201211 0.873709 6.15439 136 100 22
1.08509 1.02809 7.4681 136 102 72
0.00294352 0.881503 6.05735 147 182 174
1.06832 1.02068 7.31657 140 106 74
0.891236 0.924009 6.51215 167 126 34
-0.00370837 0.923024 6.15383 148 182 174
0.736524 0.9185 6.30521 138 110 20
0.745811 0.937224 6.361 108 89 31
0.0294795 0.966052 6.14955 148 190 190
1.48993 1.08228 7.12575 143 110 66
1.16134 1.0679 6.85241 138 104 66
0.850486 1.048 6.42818 214 185 77
0.019135 1.03119 6.14745 138 106 20
-2.43082 1.33708 7.36216 140 104 48
1.1605 1.11137 6.91324 143 110 68
0.723236 1.05706 6.30621 208 161 0
1.07736 1.14369 6.90036 144 110 68
1.1405 1.14562 6.92897 142 106 66
1.13489 1.15554 6.89846 143 104 66
0.862137 1.11921 6.60355 212 186 42
0.766899 1.10539 6.38695 170 144 86
0.940925 1.17033 6.76948 144 106 49
0.839028 1.13086 6.43628 195 168 2
1.29823 1.18608 6.77209 140 103 64
1.65262 1.14738 6.50565 141 108 64
1.00873 1.22822 6.61197 143 102 55
0.0641195 1.21098 6.27953 177 126 0
0.0541895 1.26662 6.45317 178 126 0
0.236166 1.24073 6.43372 192 142 0
1.42242 1.21363 6.55486 140 106 66
0.872468 1.26175 6.50752 106 61 2
-2.63691 1.48656 6.9119 133 97 56
1.33286 1.2372 6.50665 136 100 60
4.46463 1.55597 8.60328 136 106 64
0.829751 1.2737 6.42745 98 57 9
1.31404 1.26998 6.42241 144 109 68
0.231482 1.33191 6.34143 189 136 0
1.01279 1.3253 6.61713 144 103 50
1.30079 1.28245 6.42939 144 110 64
0.706085 1.32069 6.34103 92 54 0
1.27963 1.28161 6.25929 144 109 64
0.0393532 1.38869 6.42435 76 38 0
0.932242 1.3119 6.27895 142 102 42
-2.62539 1.55782 6.71856 132 95 50
1.24305 1.31611 6.30225 144 104 62
-2.10023 1.58622 6.74998 137 100 44
0.147243 1.40186 6.38347 127 78 1
0.330188 1.39011 6.31135 119 72 1
0.400275 1.39038 6.33593 122 73 4
1.33905 1.34504 6.3099 136 101 56
-2.03778 1.56907 6.40994 134 97 40
1.22683 1.35797 6.13479 140 104 60
-2.10316 1.65642 6.4055 133 96 48
2.32761 1.03021 4.7559 144 112 64
-1.71326 1.6096 6.25603 136 99 38
-2.07213 1.6052 6.18204 129 95 52
-2.53625 1.65362 6.20703 134 96 53
4.10083 1.58882 7.51502 138 110 66
-1.86349 1.64721 6.35228 138 101 44
-2.21358 1.71542 6.339 132 92 51
-2.44389 1.70827 6.14508 134 100 54
-2.27588 1.68458 6.01687 132 96 50
-2.95951 1.79707 6.4048 130 93 44
-2.41615 1.69796 6.08057 130 92 45
-2.05197 1.6821 6.04556 132 96 45
-2.51984 1.69292 6.09301 128 96 52
-2.30467 1.70594 6.07709 137 100 57
-2.24703 1.77628 6.2295 132 91 48
4.83192 3.96595 16.0647 142 108 58
-1.29146 1.65634 5.95542 135 98 36
-2.27831 1.79705 6.19219 130 94 44
-1.95808 1.6807 5.9091 134 100 42
1.74669 0.76686 3.11546 141 112 66
-2.69568 1.83732 6.08939 134 98 48
-2.27362 1.76619 5.83066 136 100 47
-1.83945 1.63902 5.49987 135 97 50
1.186 1.50797 5.50794 144 112 64
-2.25402 1.84018 5.94197 133 92 45
3.98528 2.02748 7.57884 140 109 62
-1.73287 1.87891 6.13036 132 97 32
-0.532241 1.64952 5.50652 144 106 39
-1.98463 1.88297 6.18026 137 100 46
0.581427 1.70803 5.8681 137 90 8
-1.87141 1.70641 5.39809 133 94 38
0.781084 1.74059 5.93862 134 88 26
-2.29382 1.7731 5.589 128 92 43
-2.39515 1.7544 5.53869 131 94 48
-1.25531 1.6421 5.33432 140 102 37
-2.09761 1.93376 6.12175 134 98 41
-1.88659 1.90088 6.02264 139 103 40
0.848025 1.70846 5.70937 136 96 36
1.15283 1.56794 5.23277 137 103 52
1.3427 1.52919 5.20679 136 102 50
2.46221 2.10212 7.27083 138 102 58
2.20342 1.56576 5.45364 142 110 64
3.31831 1.6407 6.08568 140 109 69
0.314458 -2.0972 7.09699 188 198 209
0.31817 -1.99043 6.95651 186 196 207
0.319421 -2.03124 7.15107 184 195 204
0.0166959 -1.34745 6.2321 143 66 71
0.110923 -1.06624 6.17401 178 62 26
0.344559 -0.976136 6.25933 151 94 110
-0.0151782 -0.86362 6.23745 141 103 104
0.120472 -0.457476 6.09257 171 14 6
0.422133 -0.441677 6.36948 154 113 126
0.134222 -0.353503 6.07753 74 65 58
0.517023 -0.298075 6.36181 197 216 228
-0.0416166 -0.123684 6.1148 187 189 170
0.491245 -0.09913 6.07366 194 210 214
0.480407 -0.0391635 6.03473 198 219 228
0.0571859 -0.0221468 6.18354 149 135 90
0.176605 -0.000397452 6.01881 176 172 146
0.229179 0.0561493 6.24784 186 186 168
0.458145 0.0841024 6.16383 204 224 232
-0.106273 0.127863 5.77607 179 74 74
0.000344018 0.137789 5.8418 157 56 70
0.507237 0.137933 6.0992 196 216 221
-0.0342647 0.309552 5.70135 202 77 89
-0.350855 0.346204 5.90276 199 166 159
0.11335 0.386333 5.97948 130 78 12
0.0129472 0.389758 5.80401 218 225 221
0.702677 0.409854 6.39191 226 192 28
0.496002 0.442513 6.31638 232 203 40
0.00084393 0.460354 5.94528 144 139 92
0.726068 0.483466 6.4125 232 193 22
0.749279 0.567616 6.32704 198 154 37
0.029304 0.651156 6.04886 155 110 78
0.475996 0.669015 6.10227 232 120 0
0.369526 0.686938 6.09699 58 36 44
0.478933 0.685771 6.11035 228 114 0
0.464613 0.721673 6.08112 237 172 88
-1.9358 1.10784 8.23773 158 132 88
0.893505 0.791569 6.53933 160 124 48
1.32621 0.881997 7.30872 138 104 76
-2.44915 1.1495 8.12656 148 122 90
0.441017 0.782928 6.09596 140 78 14
0.807485 0.80378 6.31967 232 196 6
0.0980875 0.816833 6.17258 170 112 6
0.899723 0.859114 6.51385 160 126 48
-0.0905687 0.927295 6.19734 158 118 5
-2.40303 1.25792 7.84169 138 98 38
0.88983 0.97715 6.58745 187 151 74
0.857168 1.01091 6.44927 198 168 72
-0.108313 1.06826 6.32101 168 121 2
0.833144 1.14722 6.43342 196 166 6
0.157705 1.15528 6.23144 190 140 0
1.71786 1.22506 6.38049 145 112 70
1.67636 1.22677 6.44637 146 113 72
0.804289 1.29232 6.44359 104 56 2
1.64063 1.28754 6.62938 144 110 68
1.40136 1.27503 6.32331 143 106 66
1.52878 1.28253 6.31688 143 108 66
0.450899 1.39094 6.38425 140 101 26
1.31897 1.31726 6.22921 138 100 60
0.277615 1.38925 6.30696 140 90 5
0.631206 1.40166 6.2498 148 98 0
1.04983 1.42313 5.98666 145 109 61
0.749048 1.55989 6.05322 139 94 16
0.464865 1.59325 5.9488 143 96 6
-2.315 1.74938 6.02948 132 94 51
-2.30107 1.78512 5.86783 144 106 52
2.67619 -1.74157 7.65363 193 210 238
1.56269 -0.664294 7.08814 198 212 233
-4.2397 0.0568071 8.36449 180 180 188
0.519474 0.311038 6.16899 192 186 150
0.785963 0.457602 6.50988 212 194 94
0.288486 0.478249 6.14461 208 166 3
0.260317 0.525875 6.0793 208 172 2
0.422127 0.614891 6.10445 186 145 56
-0.0773458 0.774369 6.18297 158 146 84
0.0709068 0.952927 6.18091 192 196 124
0.544516 1.46709 6.36806 146 98 0
0.476623 1.71525 5.99878 143 98 8
0.370988 -0.561366 6.18723 200 34 66
0.423709 -0.478884 6.19134 204 38 66
0.340125 -0.0484548 5.99623 142 142 126
0.0387403 -0.0326899 6.10384 150 135 93
0.566435 0.128656 6.20581 216 214 128
0.39192 0.591489 6.15345 170 143 44
0.0306615 0.670945 6.03078 192 164 135
0.754206 0.762987 6.38082 212 108 2
-2.4956 1.28787 7.66754 135 98 46
0.170314 0.970553 6.1826 192 144 2
-2.36087 1.41711 7.16599 140 106 52
-0.19196 1.33793 6.75816 129 78 10
-0.0546073 1.36616 6.47775 108 57 3
1.7231 1.3065 6.1371 146 111 68
2.23185 1.47972 6.07092 142 109 68
0.309149 -2.16481 7.06401 188 196 207
0.318925 -1.96973 7.36644 183 194 202
0.335444 -1.78488 7.17188 184 194 202
0.105352 -1.39174 5.69803 219 186 188
0.360688 -1.63625 6.69971 186 196 204
0.179252 -1.47385 6.38678 162 113 127
0.169478 -1.53068 6.8197 151 106 120
0.177712 -1.50521 6.771 141 88 102
0.21161 -1.38769 6.41595 152 99 113
0.0132142 -1.27874 6.19536 172 116 118
0.363479 -1.37475 7.29213 188 198 204
0.137356 -1.00687 5.83716 173 58 24
0.411052 -0.787368 6.44546 176 140 152
0.135369 -0.533814 6.37676 184 52 18
0.157744 -0.459288 5.92917 186 39 19
0.345918 -0.433371 6.10024 200 148 150
0.173593 -0.417774 6.0954 122 46 31
0.368254 -0.457571 6.59729 142 136 139
0.43853 -0.433155 6.25566 171 124 150
0.118087 -0.409809 6.15233 148 90 55
0.13516 -0.376849 6.06922 62 53 31
-0.0260335 -0.381539 6.33251 136 58 40
-0.0353947 -0.376121 6.29149 160 113 112
0.164657 -0.208087 6.06149 185 169 114
0.537535 -0.190742 6.27852 201 222 236
0.537249 -0.168261 6.40315 199 222 234
0.530539 -0.140488 5.5861 161 178 191
-0.0178568 -0.130151 6.13689 198 202 182
-0.0444777 -0.110647 5.98324 165 159 144
0.0555366 -0.0351837 6.06014 134 119 80
0.0711915 -0.0308788 6.02985 133 118 78
0.563844 -0.00543995 6.18655 193 212 218
0.590401 0.0579683 6.36098 177 174 152
-0.173848 0.0900039 6.07635 152 130 128
-0.153157 0.098093 5.7621 161 99 102
-0.066119 0.0941173 6.20638 168 84 85
0.586358 0.0650615 5.37864 200 196 154
-0.195283 0.099736 5.9619 180 120 124
0.582276 0.0804279 5.71588 210 205 131
-0.182989 0.109228 5.62377 179 119 121
-0.0361583 0.105518 5.83727 194 90 91
0.582521 0.0930631 5.77895 213 206 103
0.630164 0.139618 6.41127 201 198 158
-0.220715 0.185254 5.86978 123 56 48
-0.311421 0.218391 5.8619 178 126 114
0.0959375 0.208213 5.76805 203 138 154
0.557076 0.234638 7.00141 226 214 95
0.558994 0.227527 6.19005 224 206 68
-0.186887 0.264329 5.77916 165 33 18
0.555174 0.245499 6.20348 226 208 66
1.76593 0.124195 3.51713 182 190 200
0.553226 0.255107 6.17688 224 201 35
-0.0990719 0.272924 5.70385 202 38 38
0.518356 0.299009 6.16007 196 193 169
0.508833 0.30783 6.13528 232 230 190
0.63295 0.331228 6.24145 226 190 0
0.0827437 0.347769 5.80121 202 46 78
0.287862 0.447445 6.12109 213 173 0
0.277824 0.456108 6.0671 198 155 2
0.155852 0.588964 6.11611 180 159 2
0.194149 0.580005 5.97626 178 156 52
0.415834 0.57505 6.00575 231 198 11
0.394051 0.617385 6.30718 81 50 18
0.414797 0.592139 6.05418 218 186 56
2.05088 0.72138 8.043 159 142 124
0.518474 0.62627 6.37554 236 188 22
0.613101 0.564645 5.72639 246 170 75
1.76663 0.755495 8.1183 168 156 146
1.81408 0.858032 9.16633 162 147 140
1.74521 0.771159 8.23282 163 150 140
1.6727 0.853511 8.99721 156 142 140
1.57457 0.813683 8.50067 154 142 134
1.14785 0.818346 8.14102 144 128 120
0.316755 0.654847 6.08275 55 30 27
0.376374 0.569889 5.20233 47 18 17
0.453067 0.711701 6.09921 240 217 198
0.463911 0.714121 6.12266 244 180 97
0.973397 0.834953 6.99397 136 103 78
1.36946 0.787484 6.72488 144 111 77
-2.59135 1.16443 8.1364 156 134 103
-2.70595 1.17474 8.1486 156 131 109
-2.34837 1.01946 6.93091 159 138 112
-0.00341972 0.805095 6.00628 162 180 148
1.03945 0.970764 7.5272 136 104 74
1.1154 0.964555 7.39416 142 110 76
-4.11447 1.28406 8.08792 167 166 171
-4.08681 1.29862 8.09915 161 147 140
0.793422 0.853206 6.31379 240 206 14
0.437224 0.898379 6.37996 208 174 6
0.262068 0.86923 6.08844 116 83 4
0.424452 0.860329 6.0706 204 168 6
1.21241 0.996846 7.42528 136 102 72
1.20851 1.00879 7.26396 138 105 75
1.26248 0.999788 7.12909 141 108 74
1.06253 1.03662 7.15031 146 114 76
1.48697 1.32567 8.84822 142 107 66
1.35037 1.04627 6.86991 142 108 70
0.0896235 1.04864 6.39783 166 118 2
1.01027 1.09194 6.9565 141 106 70
1.17317 1.09627 6.96408 143 109 72
0.102454 0.944076 5.69674 138 98 2
0.0386263 1.01804 6.11522 152 132 51
-0.00960483 0.983352 5.885 152 128 31
0.0573816 1.06595 6.36446 156 112 2
1.32813 1.14791 7.17223 142 110 64
1.07329 1.11209 6.8228 146 112 74
1.60916 0.990441 6.26038 146 114 68
1.42723 1.18182 7.23934 142 108 70
0.089705 1.20638 7.00307 187 140 1
1.12279 1.15239 6.97119 146 104 68
1.48454 1.1243 6.84137 146 111 66
1.11593 1.1654 6.91938 145 104 66
1.35023 1.12848 6.77023 138 105 66
1.73321 1.5579 9.30753 144 110 68
1.6196 1.24179 7.36053 145 110 70
1.349 1.17811 6.7457 140 105 68
1.22078 1.18194 6.68493 144 106 66
1.39035 1.2527 7.08967 140 104 69
1.44324 1.09501 5.99933 146 112 68
1.21098 1.23566 6.76101 142 106 65
0.908031 1.23268 6.61482 136 94 11
0.888949 1.25737 6.55312 122 78 13
0.865281 1.25526 6.47758 104 60 2
1.70918 1.2675 6.63922 142 110 67
-0.0366629 1.35715 6.42445 96 54 4
-2.60316 1.5788 6.87101 137 100 57
1.58736 1.5683 7.68907 144 108 63
0.665755 1.32701 6.31721 105 63 1
1.31056 1.29244 6.28285 134 98 66
-2.41481 1.50816 6.44422 132 97 58
0.616058 1.32215 6.21084 107 60 2
-2.39224 1.53441 6.53024 134 96 55
-2.33719 1.54885 6.59645 140 106 56
0.850822 1.34887 6.29793 138 94 12
-2.5072 1.62237 6.74823 137 100 57
0.784305 1.38499 6.34148 146 100 2
0.864062 1.40838 6.304 138 96 19
-2.29691 1.56997 6.48657 136 100 56
1.11297 1.31118 6.0162 144 110 67
0.795291 1.40512 6.35404 145 99 6
1.11709 1.33309 6.05977 145 112 67
0.733467 1.3538 6.05673 146 101 0
-2.32411 1.52823 6.17031 134 97 58
1.30891 1.33041 6.02184 138 104 60
-2.31798 1.60504 6.44879 141 108 56
1.34351 1.40605 6.29676 140 104 63
1.68382 1.34075 6.12815 144 111 62
-2.83515 1.93017 7.58958 139 106 61
1.34928 1.42917 6.34212 139 104 65
1.30177 1.36139 5.93419 140 105 64
-2.2121 1.64631 6.45179 138 101 50
0.704234 1.53115 6.54852 140 96 2
0.644426 1.44604 6.05508 146 100 2
1.39876 1.19079 5.18899 142 104 62
1.39439 1.38354 5.88347 142 105 60
-2.47164 1.6584 6.34896 138 104 58
1.29124 1.38386 5.84126 139 104 60
1.58425 1.19618 5.13272 146 112 68
-2.06112 1.66 6.20616 138 102 58
0.813887 1.4525 5.93314 144 100 28
1.501 1.36498 5.67807 142 106 58
0.659779 1.43906 5.75627 146 104 16
0.82489 1.48314 5.88205 143 100 23
0.561839 1.22336 4.86365 141 97 0
-2.21385 1.71436 6.20549 136 100 55
0.5178 1.59877 6.09996 144 97 4
1.37914 1.63991 6.51141 140 102 65
1.46181 1.41719 5.67929 146 110 64
-2.59518 1.75603 6.19643 136 99 54
-2.35415 1.8844 6.66081 138 102 52
1.18333 1.45387 5.63671 147 110 63
-2.40401 1.74274 5.96812 135 100 56
1.32408 1.57064 5.98381 141 104 57
-2.12184 1.77425 5.99939 136 98 50
1.66563 2.03531 7.64459 138 103 59
1.50337 1.55061 5.85417 140 104 62
-2.21057 1.7098 5.71756 140 104 52
0.784867 1.53655 5.61669 140 98 16
1.17939 1.48035 5.45977 150 116 70
1.61638 1.22448 4.59831 146 112 64
-1.84852 1.8792 6.31807 138 102 48
0.728513 1.5063 5.35926 140 94 19
-2.23059 1.87229 6.09864 134 98 46
1.90425 1.56103 5.72779 148 112 58
-2.56104 1.86103 5.85499 136 100 52
-2.08406 2.04158 6.61007 139 102 40
0.825291 1.65132 5.8065 138 94 27
1.27615 1.5484 5.53321 142 105 60
-2.09604 1.84521 5.95904 136 100 48
1.13883 1.47622 5.23563 143 104 57
-2.16793 1.83929 5.89511 138 99 50
1.15013 1.51664 5.30252 142 102 60
-2.11304 1.96503 6.22389 138 102 39
1.59493 1.16531 4.12658 143 107 56
1.1596 1.55555 5.31519 139 104 60
1.64142 1.63124 5.67181 142 106 54
-2.20679 1.75251 5.37585 137 96 50
-2.40193 2.09353 6.45852 136 99 50
0.807489 2.04532 6.82674 135 91 24
-0.00746311 -1.34549 6.34615 180 130 132
1.92397 -1.85147 8.68415 198 212 232
0.175517 -1.08805 6.13625 178 40 46
0.369174 -1.23368 7.35663 188 197 205
-0.02401 -0.0944308 6.01939 180 174 154
0.109982 -0.0305726 6.07846 128 114 91
0.545602 0.080217 6.1502 192 212 217
-0.227733 0.127035 5.859 174 106 94
-0.129153 0.127559 5.78382 167 46 48
-0.330534 0.263981 5.87037 176 120 110
0.706228 0.297652 6.51257 208 190 84
0.151707 0.306215 5.95198 198 201 197
0.106269 0.358387 5.854 126 50 32
0.711552 0.420143 6.30095 248 218 62
0.785292 0.463982 6.40703 214 194 88
0.00184098 0.525885 6.0379 175 186 154
0.447704 0.53538 6.2775 226 199 26
0.16724 0.690858 6.07999 95 28 4
0.433443 0.696027 6.07172 135 86 76
1.02162 0.952699 7.68542 136 102 76
1.27725 0.890957 6.84997 137 104 74
0.910211 0.950258 6.58904 146 112 64
0.925077 1.08963 6.8073 146 108 46
-0.00707707 1.04027 6.20477 165 132 41
0.0860416 1.08223 6.27586 173 127 0
-0.201186 1.2982 6.70699 134 90 6
0.638635 1.46434 6.2742 144 97 4
0.442026 1.50902 6.3973 148 100 1
1.13973 1.45011 6.06336 154 120 66
0.447906 1.57817 6.35509 141 94 0
1.11806 1.4335 5.82201 153 122 68
0.470157 1.49299 5.76562 144 94 2
-2.15884 1.73815 5.83045 134 98 52
-1.95546 1.803 5.78422 136 102 50
0.000354893 -1.26853 6.26289 158 106 112
0.369717 -1.3114 7.31125 186 196 202
-0.0402207 -0.433111 6.25689 177 151 154
0.620719 0.210749 6.32341 216 191 30
0.152542 -1.28099 6.27553 186 30 40
0.436535 -0.243933 6.05618 204 209 188
0.162706 0.450842 5.99461 168 134 0
0.0325135 0.474576 5.73451 156 160 114
-1.92941 1.10182 8.15569 150 120 75
-2.06011 1.1181 8.19715 156 131 93
-2.46111 1.36703 7.40959 144 106 54
0.247006 1.16153 6.82726 206 160 0
-2.32156 1.36834 7.1254 143 102 55
1.15591 1.35144 6.40121 144 108 57
1.24122 1.31051 6.1897 144 102 60
-2.12558 1.5484 6.49129 136 95 52
3.5613 1.39847 6.8294 142 108 71
1.26807 1.59088 5.41314 140 100 55
0.311828 -2.11648 7.05519 188 198 208
0.0657545 -1.55359 6.34832 203 140 145
0.107664 -1.12926 6.2062 166 38 18
0.153348 -0.517008 6.12178 182 48 16
0.159244 -0.477103 6.09992 212 74 37
-0.0338421 -0.382665 6.23417 149 76 77
0.280298 -0.369085 6.04177 60 58 66
0.0191077 -0.31307 6.42938 170 162 117
0.467979 -0.157825 6.10418 191 198 190
0.0452183 -0.0397707 6.09737 136 120 82
0.438557 -0.0454 6.07601 182 200 210
0.0591331 -0.0325588 6.06989 132 114 77
0.306505 0.141793 6.43517 196 204 195
-0.29508 0.170903 6.10359 180 173 162
0.573318 0.158337 6.16756 216 202 81
-0.308497 0.20195 5.8489 165 140 128
-0.329885 0.243916 5.89202 190 145 146
0.558034 0.262243 6.21541 223 201 44
0.177731 0.25953 6.01367 148 122 100
0.715705 0.263964 6.6072 202 194 142
-0.0312288 0.294102 5.66342 210 66 72
0.146046 0.367867 5.88979 134 113 55
0.695023 0.390181 6.36548 218 184 16
-0.328794 0.379647 5.77576 187 170 165
0.176796 0.448854 5.87075 172 144 0
-5.16967 1.06486 10.9627 177 175 182
-0.0968992 0.502833 5.97787 120 128 92
0.173786 0.583827 6.13254 166 138 0
0.434989 0.601126 6.13531 227 184 1
0.836307 0.639504 6.64125 226 188 11
0.411032 0.612367 6.15722 82 49 9
0.602846 0.625098 6.28719 234 158 73
0.801462 0.632729 6.4755 230 192 0
0.776168 0.637566 6.37154 230 182 12
0.770978 0.670666 6.34277 214 154 3
-0.147243 0.686314 6.13626 172 142 54
-1.06622 0.937956 7.40602 152 120 71
0.246334 0.758635 5.95243 60 10 16
-1.4265 0.908418 6.80347 149 119 68
-1.58783 0.953406 7.13129 152 124 80
1.30648 0.9258 7.368 137 103 73
0.377385 0.810833 6.14366 76 20 26
-0.196299 0.862877 6.36175 158 113 5
0.426309 0.849328 6.12955 70 18 1
1.04157 0.934876 6.72301 138 103 73
0.74187 0.904969 6.34594 109 75 3
-1.50648 1.18204 7.57419 138 98 24
0.0534471 1.04076 6.24283 140 104 12
0.0256206 1.05546 6.28567 165 144 67
-0.0277533 1.0583 6.23789 164 119 1
1.35713 1.14846 6.84624 136 102 62
0.0869941 1.15338 6.53796 178 130 0
0.154456 1.18572 6.75037 187 136 0
1.47622 1.13136 6.6476 141 107 66
0.751745 1.10815 6.31091 201 166 8
1.23602 1.21206 6.75108 144 108 66
-2.69943 1.50355 7.61722 132 94 48
1.4484 1.22241 6.72379 141 106 66
-0.211262 1.30124 6.77587 126 78 6
1.366 1.24044 6.73697 137 100 60
0.638753 1.22134 6.41509 216 180 0
0.905371 1.26218 6.6158 123 81 11
1.51804 1.2681 6.66545 143 110 64
0.871109 1.28422 6.53754 128 82 6
-2.65563 1.46223 6.76455 136 100 56
0.743778 1.31263 6.38008 115 74 2
0.495902 1.36919 6.28536 90 65 21
1.1375 1.35373 6.23247 143 108 62
-2.26937 1.50248 6.38159 133 96 46
1.13317 1.36369 6.1585 144 110 64
1.33068 1.37922 6.10449 138 102 56
-1.85827 1.58208 6.34458 136 98 42
0.704769 1.45831 6.2933 143 96 1
-2.42036 1.58101 6.31684 128 90 44
-2.26303 1.57079 6.27311 140 104 52
0.807399 1.41619 6.15043 138 96 24
-1.76581 1.6253 6.21797 136 98 38
0.912664 1.45444 6.01267 132 90 43
-2.52668 1.85905 7.00672 134 93 48
-2.0232 1.62146 6.15576 134 96 44
-1.92297 1.65978 6.12462 135 96 38
-2.01533 1.6386 5.98302 134 96 42
-1.69785 1.64791 6.03616 137 98 40
-2.09437 1.63556 5.93726 134 96 40
-2.81417 1.70646 5.97495 134 94 52
-2.51143 1.71609 6.0034 130 93 45
0.965915 1.52929 5.84548 133 92 46
-1.71569 1.73187 6.14565 140 102 36
1.84217 1.51455 5.73619 142 110 59
0.746404 1.58694 5.76122 136 93 24
-2.59541 1.83367 6.13353 132 89 50
0.649969 1.73695 6.06394 138 94 15
-1.9558 1.8169 5.87219 132 92 34
-2.71021 1.88666 6.00095 129 90 46
-1.59051 1.71193 5.44091 140 102 28
0.247673 -0.5661 6.31606 190 42 42
0.290795 -0.442524 6.1042 158 26 48
0.535466 -0.168832 6.10146 179 190 204
0.300501 0.194785 6.14496 192 198 186
0.703285 0.568444 6.60513 230 191 2
3.44857 0.667789 7.93388 136 109 74
0.156265 0.609512 6.08702 172 150 4
0.448739 0.720522 6.14238 156 138 130
-0.0595856 0.786869 6.04017 132 134 90
0.732841 0.937243 6.36021 208 180 23
-0.136537 1.01164 6.44789 164 114 0
-0.00486126 1.2948 6.3864 173 117 0
0.0814582 1.41018 6.14094 134 78 0
-1.31075 1.58575 6.32538 137 97 34
-0.720505 -1.71568 6.20749 189 198 206
0.329695 -1.90198 7.27689 179 188 198
0.230675 -1.30019 6.13922 146 97 108
-0.0151741 -0.946524 6.21992 170 136 141
-0.218917 0.138768 5.73734 201 108 95
-0.31319 0.218786 5.87245 154 91 86
-0.123579 0.52045 6.10394 122 118 55
0.582381 0.627766 6.33416 228 166 70
-0.187803 0.701901 6.42649 172 132 1
-0.375605 0.809685 6.74398 146 116 84
-2.98766 1.20109 8.24884 148 126 100
0.438713 0.855616 6.13714 160 126 13
-4.03334 1.26483 7.89229 158 148 139
0.0969141 1.06112 6.23954 163 119 1
0.41117 1.15052 6.22936 209 166 0
0.0683718 1.18472 6.33954 182 133 0
-0.201875 1.30522 6.72092 125 76 4
0.888081 1.2541 6.54887 115 74 11
0.443541 1.256 6.35006 216 172 1
0.813405 1.30501 6.48062 108 60 4
-2.48805 1.50921 6.58179 129 94 48
-1.9925 1.56595 6.64182 140 104 36
1.33443 1.45726 6.00504 138 103 60
-2.68941 1.80578 6.2489 131 94 44
2.1789 1.5215 5.5069 139 104 60
-2.71768 1.94268 6.21411 136 96 50
0.317125 -2.01263 7.40125 179 189 198
0.107636 -1.13258 6.16007 165 30 12
0.111662 -1.05401 6.16222 179 71 30
-0.0323641 -0.119406 6.17934 192 196 173
-0.170314 0.0824189 6.29554 173 159 160
-0.327176 0.217768 5.87975 188 174 166
0.74158 0.564817 5.93703 218 170 2
1.63553 0.748317 7.91694 160 146 137
-5.93868 1.99335 17.3023 177 170 160
1.52817 0.867234 7.86611 144 114 74
0.8889 0.948704 6.55747 180 138 33
-1.61409 1.26591 7.97565 136 94 21
1.36631 1.16825 6.88579 140 105 64
1.57464 1.14404 6.64937 144 111 68
1.60281 1.1759 6.36084 140 108 66
0.926281 1.30251 6.34129 140 97 45
0.56813 1.32797 6.17786 100 59 5
0.524366 1.34075 6.17971 99 63 0
1.38376 1.32658 5.93828 139 103 63
1.9036 1.51197 6.45665 143 110 63
-1.90155 1.69907 6.10089 137 98 44
1.37412 1.44834 5.55755 138 102 58
-1.97143 1.74757 6.03737 132 93 44
-2.19713 2.068 7.14711 136 100 37
1.15213 1.52148 5.28073 138 100 56
-2.51426 1.91543 6.07008 132 93 48
0.343433 -1.60899 7.22934 179 188 195
3.18458 0.770657 7.44608 146 116 72
-3.37629 1.24705 7.07518 144 114 71
-1.04778 -1.90989 7.28168 188 192 198
2.05149 1.34579 5.94454 144 110 58
0.185174 -1.43949 6.20285 174 123 132
0.0153063 -1.3143 6.22682 176 107 117
-0.559115 -1.39652 6.75333 190 199 209
0.115286 -1.08235 6.19155 171 50 24
-0.0136784 -0.961636 6.25794 167 124 132
-0.0135061 -0.949065 6.26132 163 116 125
0.139081 -0.457053 6.14701 177 26 10
0.182616 -0.413562 5.93815 150 10 18
0.139022 -0.401795 6.12833 189 142 97
0.57617 0.0937645 6.28497 195 206 212
0.061487 0.271519 5.80231 202 64 104
-0.154636 0.293013 5.79126 176 28 12
-0.351804 0.34117 5.91376 201 172 173
-0.341714 0.374874 5.95201 190 174 178
0.183772 0.586794 6.07917 186 168 12
0.0313404 0.669823 6.09571 184 149 120
0.688307 0.692397 6.2471 235 104 0
0.378418 0.705419 6.19728 67 44 54
0.260729 0.724249 6.15451 60 26 35
-0.466852 0.936061 7.84114 150 120 89
-0.459306 0.933515 7.81782 144 112 79
-0.629635 0.965624 7.99892 151 124 88
0.16623 0.777574 6.10249 142 44 21
1.29905 1.01341 7.52889 139 108 79
-0.0478146 0.831042 6.0466 144 162 131
0.747335 0.922146 6.37022 116 84 17
-2.66306 1.20292 7.90258 137 98 52
1.1918 1.11647 7.11144 142 108 72
-2.7346 1.28254 7.61062 140 98 56
0.0801597 1.05593 6.26178 163 120 1
1.42051 1.16067 6.80684 145 110 70
-2.57188 1.22342 7.21791 140 100 43
-1.41857 1.28114 7.12378 138 98 24
1.40811 1.18856 6.62922 143 109 72
1.367 1.21525 6.75793 140 106 70
0.939254 1.24536 6.73357 130 92 29
-2.44005 1.30308 7.03284 141 102 47
-2.49381 1.30821 7.0287 134 96 53
-0.182547 1.31087 6.59352 102 44 2
-0.19421 1.31763 6.57932 138 90 10
1.3331 1.31141 6.51031 145 112 71
-0.144034 1.34653 6.59856 117 64 7
-2.51289 1.38671 6.81043 136 98 47
1.33788 1.32718 6.38853 136 102 71
0.67102 1.34611 6.36086 96 54 0
0.951135 1.3436 6.30636 150 112 60
0.855175 1.35887 6.22484 139 98 42
0.152556 1.39623 6.3912 188 141 16
0.139323 1.40552 6.39385 134 86 0
-2.41569 1.54281 6.31264 132 92 48
-1.94555 1.6198 6.48112 134 96 36
-2.09795 1.53261 6.24046 136 96 40
1.41407 1.4817 5.76221 140 108 62
1.96366 1.58864 6.16354 145 114 66
-1.96952 1.55519 5.94826 136 98 46
-1.69395 1.62233 6.31272 142 104 43
-2.56671 1.63291 6.08882 136 96 49
-2.00805 1.61728 5.97449 136 96 38
0.864259 1.53469 5.59317 138 100 48
-2.61815 1.65319 6.03808 132 92 33
1.73953 1.52739 5.39099 145 113 69
0.799151 1.68473 5.92448 139 99 45
-2.84701 1.67231 5.90342 134 98 40
0.691299 1.58304 5.367 141 98 46
0.745392 1.76415 5.86724 138 100 36
1.82357 1.61136 5.23517 144 112 65
0.562294 1.80121 5.80468 140 96 21
0.343197 -1.95403 7.33905 181 192 202
0.0779176 -1.52269 6.21888 163 74 76
0.22203 -1.39722 6.28051 180 143 154
0.228328 -1.35427 6.20801 216 192 202
0.00588101 -1.28282 5.99759 170 106 112
0.125951 -1.13942 6.37933 170 43 24
-0.24021 -1.25004 7.61347 189 197 208
0.147152 -0.884953 6.31397 181 75 29
0.367932 -0.421653 6.10109 178 138 146
-0.0305152 -0.377641 6.34305 140 70 70
0.379539 0.00833217 6.07735 217 242 249
0.541993 0.0910313 6.10394 196 210 219
-0.17455 0.110353 7.38544 198 157 162
-0.241736 0.124897 5.92006 179 162 152
-0.254209 0.129068 5.92721 188 180 172
-0.269851 0.150553 6.15704 188 184 176
-0.281563 0.164126 6.09939 188 178 172
-0.334338 0.256946 5.91399 194 152 150
-0.348631 0.350427 5.86253 190 167 168
0.421794 0.589374 6.13655 234 197 0
1.63497 0.768042 7.96875 168 155 146
1.65116 0.767867 7.96498 164 147 136
1.59352 0.737159 7.64787 169 156 147
1.75537 0.84555 8.74347 155 138 125
1.46133 0.750215 7.65612 154 138 133
0.17764 0.589157 6.01109 173 152 38
0.415001 0.599725 5.9854 220 180 31
0.356857 0.698331 5.96209 64 38 48
0.934618 0.866041 6.72516 158 124 54
-1.5654 0.938054 6.98113 161 134 88
-1.55079 0.938147 6.9806 154 124 79
0.906026 0.880622 6.55578 152 116 54
0.420515 0.853658 6.08169 94 51 4
0.408584 0.855367 5.99734 208 172 16
1.38024 1.09916 7.17132 146 111 73
-4.1694 1.28424 8.13402 166 164 169
0.0941372 1.03099 6.2901 178 135 11
0.07823 1.03167 6.20787 158 113 2
1.0659 1.13261 6.74189 146 109 73
-0.0308993 1.03922 6.21189 152 122 20
0.953056 1.19527 6.74634 151 114 60
0.897711 1.21818 6.53128 129 89 18
0.912598 1.25402 6.6409 132 92 15
0.721773 1.19554 6.30058 216 184 0
-2.29494 1.34284 6.97956 142 104 49
-2.24666 1.33093 6.80812 138 99 47
0.51702 1.37576 6.32102 120 94 50
1.49646 1.44527 6.37179 142 108 67
-2.73364 1.30691 5.63533 140 105 60
-3.05725 1.79487 7.44136 139 101 54
-2.7784 1.70647 6.83492 132 98 48
0.993296 1.46778 5.86485 140 102 59
-2.14055 1.59367 6.31301 138 98 48
-1.98254 1.6177 6.338 140 100 50
-2.15061 1.64542 6.24713 134 98 41
1.50542 1.40737 5.35725 144 109 66
-1.88238 1.53988 5.84804 138 100 46
0.789477 1.53084 5.70684 141 104 42
0.934661 1.49715 5.54981 136 97 52
-2.02493 1.72664 6.27668 140 102 46
-1.73178 1.57117 5.75953 143 104 44
-1.84566 1.6408 6.02627 136 98 44
1.82477 1.69628 6.07468 142 106 64
0.771242 1.51287 5.37411 136 96 45
-2.41448 1.57242 5.60752 132 94 54
-1.8829 1.65492 5.86037 136 94 36
2.0348 1.81126 6.39084 146 112 70
-2.67079 1.77988 6.24241 134 96 50
1.65745 1.55234 5.39656 148 112 70
1.79338 1.57956 5.46762 142 108 66
0.749498 1.57786 5.46556 138 96 42
0.814441 1.57414 5.39899 135 96 46
-2.33276 1.68134 5.793 133 94 46
-2.00101 1.87701 6.41238 138 98 36
-1.93661 1.75136 5.94226 134 94 49
0.180644 1.65367 5.56829 139 92 11
1.13651 1.54399 5.21762 142 110 62
-1.5607 1.55513 5.2788 142 102 42
1.13385 1.63881 5.50744 140 103 58
1.05656 1.56133 5.15625 140 104 58
-2.98941 2.08043 6.91927 137 98 50
2.20296 1.94656 6.46246 140 106 64
-1.80948 1.80924 5.9972 141 102 46
1.13101 1.55592 5.12326 146 112 66
0.567815 1.73198 5.64824 146 104 20
-2.25819 1.95171 6.39252 134 92 41
-2.1616 1.75292 5.74366 138 94 46
1.19033 1.62548 5.33018 152 120 72
0.709078 1.61653 5.24243 138 96 42
1.66905 1.58091 5.07133 146 113 59
0.594817 0.708242 6.45075 244 130 5
1.11016 1.32466 6.27605 151 114 65
-5.24909 2.24833 10.6555 138 104 60
-0.800997 0.466115 7.41902 181 164 150
-0.9707 1.55373 6.92847 140 104 38
-1.37466 1.86222 6.10328 146 108 44
-0.745844 1.72168 5.92412 146 109 48
-1.53749 1.45217 7.30511 142 102 38
-1.41497 1.49531 7.40157 136 96 27
-2.91299 0.931488 7.75332 184 179 178
-3.81675 1.45546 7.2362 144 106 60
-0.017522 1.83714 5.84459 136 93 25
0.330173 -1.83197 7.14378 188 198 208
0.0839865 -1.53178 6.182 202 204 215
0.245414 -1.36742 6.32108 176 140 148
0.116295 -1.04923 6.09394 174 50 32
0.149714 -0.48714 6.03891 184 38 16
-2.85861 -0.826479 9.60253 186 187 189
0.342037 -0.423836 6.0973 184 124 126
0.269702 -0.133218 6.00426 210 219 203
0.0390554 0.131241 5.8429 183 93 88
-0.254601 0.145081 6.16997 189 182 167
-0.301673 0.192853 6.01371 192 166 164
-0.314103 0.206056 6.07598 195 182 187
-0.301112 0.206325 6.0791 168 123 120
0.155518 0.231358 6.04952 178 124 124
-0.334765 0.365567 6.11305 199 170 176
-0.3178 0.385501 6.06402 178 140 144
-0.0713085 0.460052 6.00364 127 148 142
0.172533 0.605415 6.11913 170 148 14
1.02447 0.693396 6.70524 146 130 125
0.0331122 0.640298 6.07888 122 71 17
0.874738 0.81376 6.4153 151 120 61
-1.33022 1.02414 7.99895 146 116 58
-2.48531 0.901621 5.89518 160 138 120
-2.63649 1.26838 7.67193 134 98 48
1.28389 1.20522 6.38237 142 108 70
-2.49334 1.30825 7.27048 138 99 44
-2.34398 1.1663 6.21046 139 100 52
0.77397 1.30989 6.39371 127 86 8
-2.82742 1.37563 7.21676 136 100 51
-0.124796 1.36317 6.6816 106 54 0
-0.110533 1.37368 6.68534 96 46 0
-2.62829 1.40042 7.26782 131 96 48
0.626246 1.32473 6.22549 114 73 3
0.603674 1.33063 6.22462 117 76 8
-2.11097 1.48044 7.44618 138 100 44
-3.78945 1.36086 6.82266 146 122 86
0.543579 1.36113 6.27722 120 76 2
0.54039 1.37701 6.34911 124 84 12
-2.59793 1.41897 6.83196 138 98 56
-4.00224 1.49743 7.10522 146 124 86
-1.96033 1.48487 6.09343 137 96 44
-2.43764 1.54247 6.3873 132 94 52
-1.97745 1.52834 6.07315 134 96 40
0.791893 1.52993 5.73187 140 102 48
-2.37465 1.55649 6.11602 138 99 51
-2.76556 1.66013 6.64068 134 92 50
0.80553 1.55665 5.6225 142 104 48
1.53313 1.58994 5.66107 142 108 65
1.45081 1.60502 5.6913 142 108 62
1.5714 1.57205 5.56714 140 103 62
0.946432 1.61691 5.75899 137 97 52
-2.15421 1.64306 6.28351 136 96 44
1.34057 1.61791 5.61845 142 108 64
1.48196 1.64467 5.69898 142 109 65
1.31439 1.60769 5.51844 144 108 66
-2.2664 1.66616 6.01883 145 108 54
1.91876 1.78225 5.9755 142 110 66
1.87767 1.67729 5.47619 144 110 66
1.4331 1.74146 5.78552 143 108 66
1.37209 1.60478 5.26315 145 110 66
-2.16251 1.71734 5.98741 134 93 40
0.730172 1.64444 5.3645 138 99 46
-1.99588 1.67171 5.67041 137 95 44
-2.00456 1.6758 5.65806 138 97 40
0.851629 1.91146 6.09762 142 103 42
1.80987 1.63679 5.05165 143 112 67
1.4437 1.70837 5.27398 145 110 64
2.01559 1.87168 5.81811 144 111 66
-2.59559 1.72177 5.78192 136 98 46
0.770487 1.78631 5.55396 143 105 53
0.868132 1.6715 5.20913 142 103 55
0.787779 1.99117 6.26089 144 104 34
0.686638 1.8239 5.58345 140 100 34
1.48472 1.6825 5.0759 138 104 63
1.65432 1.55062 4.59251 142 111 68
0.629766 1.81632 5.54137 143 102 38
0.75589 1.85629 5.55712 142 102 47
1.13727 1.77559 5.30439 139 102 57
1.45774 1.74767 5.194 144 110 64
0.292381 1.95304 5.88729 140 96 12
0.662446 1.80912 5.3353 144 102 43
0.833339 1.80686 5.33389 142 102 53
0.340873 1.96568 5.90281 141 96 22
0.587184 1.87183 5.53646 142 101 30
-2.32892 1.71383 5.28821 135 94 53
1.04578 1.90214 5.51488 139 103 51
1.89687 -0.176334 7.3533 194 206 222
1.22101 -0.891347 7.5199 198 210 224
-2.77814 -0.0734238 7.89608 184 184 188
-4.33815 1.60862 9.33806 141 108 63
0.305101 1.69554 6.25233 140 92 2
0.762909 -1.63939 7.75981 174 156 172
0.0483809 -0.380353 6.22785 118 83 40
-1.45023 1.71377 6.58301 136 97 39
-0.722815 -0.852991 7.35005 189 193 200
-2.95146 -0.510198 9.16525 186 185 186
-0.158076 1.40019 6.32294 136 90 13
1.79502 1.50344 5.51657 147 115 66
1.93764 1.71188 4.87891 144 108 62
0.496574 1.77962 5.13191 141 98 24
1.21871 1.68649 4.74184 147 111 61
-1.22196 1.81341 5.25471 142 102 34
-0.247974 -1.86381 6.81126 193 203 214
-0.0894436 1.65559 5.84875 142 101 34
-1.18785 1.66889 6.10848 138 100 43
-0.157371 0.324508 5.63403 184 14 14
-1.61707 1.11209 8.4344 151 122 76
-1.38201 1.97833 5.81692 142 102 43
0.342926 -1.70212 7.15442 181 192 199
0.36859 0.476669 6.14 226 192 0
0.59231 0.59671 6.31844 243 216 74
0.536952 0.622021 6.40218 238 185 68
1.95511 0.801468 7.93489 150 118 82
4.49562 0.778012 7.86849 138 127 114
1.12423 0.947495 7.46595 140 110 74
4.36227 0.866218 7.07667 138 126 108
-4.23975 1.33074 8.36885 169 166 172
0.0814771 1.03376 6.20397 159 116 1
1.58129 1.23447 6.59525 145 111 67
1.10157 1.26088 6.35438 157 123 71
1.66985 1.4177 5.66615 145 110 66
-3.23503 1.98683 6.6982 138 102 57
2.17092 1.59961 5.549 146 111 61
1.15287 1.57796 5.16101 155 124 70
-2.27816 1.82847 5.43634 143 107 46
-1.76463 1.89917 5.44456 138 100 37
1.12161 1.64262 4.75037 144 102 52
-2.21828 1.914 5.16608 138 100 45
0.999172 1.89359 5.49737 138 96 40
-1.72024 1.94818 5.17359 140 102 45
-1.67698 2.02779 5.48698 140 99 41
0.408135 2.02895 5.80464 138 94 20
0.112333 -1.11767 6.1419 170 33 18
0.119191 -0.970356 6.14919 186 74 46
0.397627 1.91648 5.77965 136 88 14
-1.54349 -1.46403 7.69651 188 190 198
2.08413 0.780226 8.14638 152 118 77
4.36295 0.757652 7.56572 144 132 118
0.101735 0.894687 6.19737 187 164 0
-3.00492 1.96814 6.37588 134 95 40
0.102746 -1.55069 6.27721 203 170 176
0.0304773 -1.46496 6.22849 181 116 117
0.378278 -1.04558 7.489 177 186 194
0.402237 -0.953906 7.37703 180 188 195
0.416104 -0.725934 7.46971 180 188 198
0.422906 -0.611416 7.50423 178 186 194
0.355822 -0.433298 6.11203 182 136 142
0.436527 -0.474158 7.51692 186 192 200
-0.074758 -0.13228 6.03593 182 184 186
0.110634 -0.148257 6.24192 213 216 192
0.599224 0.0711804 6.49493 186 179 143
-0.0105892 0.134716 5.85024 140 52 62
0.558894 0.114758 6.22212 200 210 178
-0.0474249 0.299475 5.69183 213 65 77
0.493466 0.299487 6.13527 202 212 206
0.0163597 0.329348 5.74623 180 112 139
0.161613 0.325246 5.77351 147 114 93
0.282161 0.442642 6.08872 208 170 3
-0.13378 0.531635 6.00531 130 128 81
4.22425 0.490949 8.1056 159 164 167
4.28849 0.518158 8.25853 160 156 155
2.50621 0.666019 7.90203 169 158 140
2.126 0.720025 8.14216 160 141 120
1.12969 0.808606 7.93874 142 126 120
0.661305 0.748195 6.22831 249 138 58
-0.179436 0.857745 6.2431 137 99 20
0.171885 0.852341 6.13943 168 141 43
0.428398 0.860649 6.06906 200 166 4
0.0601176 1.00117 6.22917 174 152 70
-0.0390363 1.01221 6.13166 142 142 92
0.0482854 1.10942 6.37282 178 132 4
1.09678 1.14175 6.7801 146 106 66
0.767385 1.1129 6.34058 156 120 4
1.22334 1.17648 6.88659 140 103 64
0.936278 1.19821 6.65384 146 102 31
1.47935 1.17703 6.64088 146 112 68
-0.177536 1.30029 6.60285 132 86 14
0.884341 1.24719 6.50787 116 69 4
1.24926 1.23053 6.55668 142 102 58
1.39059 1.33749 6.06132 138 104 63
1.30562 1.34519 6.00322 140 100 64
0.879121 1.40212 5.92718 138 92 21
0.937319 1.5019 5.58283 136 90 28
2.10516 1.41899 5.4731 143 106 59
1.13077 1.50956 5.46813 142 102 39
1.80628 1.61798 5.97841 142 107 60
-2.54518 1.91808 5.94866 136 98 51
0.982112 1.54666 5.30553 138 94 31
2.10688 1.46558 5.34385 142 106 59
-1.90145 1.89337 5.62105 144 105 58
-1.99308 1.86997 4.98913 138 99 52
0.503164 2.01345 6.06457 137 92 19
0.361205 -1.47769 7.21999 184 192 196
-0.135939 -0.659344 5.94126 186 187 194
0.150831 -0.550945 6.11307 200 80 38
0.228696 -0.343594 6.07568 231 232 217
0.0707969 -0.10768 5.87254 208 211 187
0.591318 0.144756 6.27729 224 204 0
0.550313 0.231085 6.21418 223 208 75
0.0724814 0.350655 5.92469 158 30 38
-0.105014 0.410812 5.78152 146 96 84
-0.0164084 0.602954 5.96241 170 209 200
1.93603 0.738084 8.09123 159 142 130
1.32126 0.891208 7.84475 139 105 79
1.36436 1.05028 6.92406 145 110 73
-0.00361279 1.04469 6.24895 142 104 6
-0.00028647 1.10596 6.32005 176 127 3
0.908262 1.3428 6.20718 149 103 26
0.29662 -2.54879 6.85297 180 188 188
3.43537 -2.47944 7.01204 175 202 240
0.328281 -1.98899 7.05996 181 190 194
0.345273 -1.899 7.04377 181 190 194
0.343515 -1.83497 7.08638 182 190 194
0.0389567 -1.47397 6.21515 205 149 148
0.175506 -1.45623 6.19801 200 171 183
0.338121 -0.972011 6.25013 140 74 93
0.406491 -1.0392 7.32006 176 184 190
0.164154 -0.526286 6.0714 187 52 20
0.276631 -0.408966 6.08143 220 214 196
0.172354 -0.209258 6.08857 123 116 104
0.121512 -0.153682 6.3023 206 212 197
-0.0599016 -0.119589 6.01525 167 166 154
0.0477625 -0.135833 6.2601 229 232 202
-0.00265581 -0.0508854 6.12069 158 150 130
0.378364 -0.0573961 6.06761 174 194 214
-0.0125377 0.101849 5.97989 168 90 99
-0.310356 0.286697 5.81243 150 78 72
0.133086 0.261365 5.82226 164 100 127
0.133377 0.275362 5.82658 177 121 144
0.130924 0.334577 5.87755 124 78 59
0.685832 0.33825 6.31241 240 213 115
-0.0280674 0.481458 6.08725 175 171 116
0.358303 0.589909 6.16591 156 122 37
0.713181 0.57684 6.63498 234 196 7
0.791299 0.69537 6.36944 230 196 31
0.838585 0.744809 6.70032 208 172 46
0.994776 0.813429 7.78875 147 134 134
1.61237 0.765415 7.96999 153 136 128
1.82336 0.749763 8.05696 166 150 142
2.08376 0.728087 8.11281 166 149 135
2.10913 0.718671 7.99536 160 139 121
2.75601 0.654527 8.02574 162 146 130
3.01717 0.654535 8.3563 163 146 128
0.616086 0.782775 6.33521 197 118 9
0.81164 0.780399 6.32301 241 218 66
0.400142 0.842227 6.13591 60 11 1
0.417317 0.851949 6.10665 144 104 17
1.05187 0.948658 7.36888 135 100 75
1.05393 0.983025 7.38054 143 112 78
-0.043529 1.0302 6.14898 146 124 56
-0.0314906 1.03205 6.15965 154 134 68
1.00856 1.08076 6.98278 140 104 77
0.765344 1.09805 6.28216 172 137 10
1.09912 1.14047 6.84247 144 104 68
1.3463 1.11498 6.86054 138 100 64
0.930342 1.18844 6.76417 136 93 21
1.47278 1.18353 6.92652 142 105 67
1.38921 1.21931 7.21716 138 102 67
0.896441 1.2224 6.8461 120 74 4
1.37935 1.28504 7.13755 143 108 63
0.839866 1.26935 6.51549 97 52 8
1.30838 1.23318 6.6386 138 101 62
1.39595 1.22844 6.60942 142 108 66
-2.19602 1.66576 6.35455 138 102 66
1.39515 1.26252 6.25977 141 105 65
1.31342 1.28114 6.28423 137 100 62
3.58959 1.06256 6.59478 136 104 64
1.3113 1.28574 6.1501 139 104 64
1.10441 1.34996 6.14914 150 114 58
1.42503 1.44013 6.41172 140 104 60
4.39975 1.10431 6.18877 126 107 84
0.490024 1.57858 5.79018 141 96 6
1.36204 1.46206 5.67859 140 104 52
1.70599 1.51106 5.92408 144 112 62
1.35009 1.49123 5.51184 138 100 54
1.222 1.55078 5.71238 140 101 54
1.14075 1.5399 5.44311 144 101 45
2.05177 1.60761 5.85034 144 107 58
1.32947 1.62244 5.11084 146 106 55
1.42397 1.60088 5.05784 136 97 51
2.40413 0.774524 6.99942 154 120 76
