ply
format ascii 1.0
element vertex 1355
property float x
property float y
property float z
property uchar red
property uchar green
property uchar blue
end_header
-0.830538 -3.08716 9.80683 100 104 62
-0.587801 -2.72191 9.31184 74 84 42
-2.0947 -2.34911 8.35482 62 66 34
1.15324 -2.44131 9.18793 51 61 27
1.09031 -2.42964 9.21091 50 58 24
-0.689498 -2.37415 9.13501 94 100 56
-0.665125 -2.24439 9.1278 122 127 84
2.2533 -1.62304 6.94044 75 76 52
-0.334294 -2.19593 9.07483 92 100 60
-2.03386 -2.04537 8.47781 102 97 64
-1.81852 -2.05372 8.45709 57 62 40
-1.82371 -1.98049 8.29381 44 48 26
-0.6321 -2.08818 9.00493 87 93 51
-0.25727 -1.98166 8.86825 85 98 52
1.87844 -1.44938 7.04124 72 74 48
1.77054 -1.48947 7.23533 104 108 63
-0.240778 -1.92553 8.90084 79 92 43
1.74571 -1.48111 7.22464 98 102 57
-1.87371 -1.83063 8.28906 112 110 62
-0.596997 -1.91706 8.90182 109 114 73
-0.219894 -1.88346 8.83204 122 133 84
1.81571 -1.41372 7.09186 52 53 28
-0.593897 -1.88466 8.89121 85 92 49
-1.71202 -1.77655 8.24884 60 60 36
1.81479 -1.39733 7.06458 72 74 50
-0.588334 -1.849 8.83967 116 122 76
-0.562819 -1.75955 8.81458 101 107 61
-1.77148 -1.71284 8.29433 117 113 72
1.67652 -1.35815 7.1406 82 88 60
1.67728 -1.34675 7.0861 63 70 45
-1.32238 -1.65508 8.41389 104 108 70
-1.41883 -1.56369 8.33282 58 65 42
-1.40957 -1.53754 8.336 52 56 34
-1.20404 -1.49522 8.33592 42 53 26
-0.334176 -1.45302 8.57582 76 89 48
1.42288 -1.16471 7.26714 72 80 56
-1.07637 -1.41277 8.44593 69 73 44
-0.106063 -1.32267 8.16752 121 129 79
-0.447468 -1.27715 8.49686 81 87 44
-0.442071 -1.24205 8.37046 98 103 62
-0.879432 -1.21548 8.47244 73 80 44
0.221214 -0.805781 6.44777 93 96 91
-1.21184 -1.05895 8.23904 86 82 53
-0.657404 -0.94745 8.4923 62 69 36
0.272568 -0.693834 6.80598 78 86 76
0.937494 -0.757582 7.5587 59 64 48
-0.610345 -0.894558 8.46494 59 68 34
-1.82972 -1.02713 9.32132 94 92 45
4.25734 -1.05395 12.3245 154 166 116
-1.07023 -0.872289 8.25669 92 88 56
0.106109 -0.659451 6.76098 66 70 58
0.120547 -0.664237 6.6935 75 80 69
-0.0452794 -0.665079 6.93573 85 82 56
-1.053 -0.840409 8.19223 109 106 66
0.206103 -0.647542 6.84619 87 94 84
-1.54547 -0.937682 9.13402 110 110 60
-1.49673 -0.920392 9.14119 125 124 73
1.87093 -0.628159 8.10208 121 130 85
-1.97567 -0.941197 9.35035 86 83 38
-1.94843 -0.930192 9.34492 96 92 51
0.660303 -0.7734 8.59067 88 94 63
0.125939 -0.595672 6.93875 72 78 68
1.86713 -0.61073 8.26883 97 104 60
-2.28349 -0.896216 9.5527 94 72 27
-0.174629 -0.658505 7.90205 100 96 49
0.201746 -0.562465 7.01089 88 96 88
1.9653 -0.562246 8.11366 124 134 88
0.72739 -0.568373 7.75932 53 58 46
0.708421 -0.544449 7.74666 56 62 48
1.78604 -0.459242 8.38281 34 32 5
-0.290079 -0.53509 8.01547 82 80 34
-0.432153 -0.51709 7.88987 83 86 46
-0.244214 -0.500171 7.72079 98 96 52
-0.216802 -0.453699 7.59572 90 88 48
-1.45023 -0.568886 8.77627 98 74 52
0.676811 -0.39838 7.88631 112 118 88
-1.38252 -0.521536 8.95632 70 52 30
0.070341 -0.389966 7.41329 50 60 48
1.54398 -0.323707 8.53712 74 85 46
-0.315028 -0.337259 7.36535 86 88 53
-0.465775 -0.347464 7.55068 94 98 57
-0.190734 -0.356559 7.82174 56 59 28
1.41804 -0.25013 8.49493 82 94 54
-1.6099 -0.405619 8.6003 144 136 74
-0.388313 -0.295707 7.31257 87 92 58
0.615422 -0.278927 8.26948 131 107 70
1.83948 -0.212819 8.03032 144 120 98
-0.69277 -0.390488 7.79209 100 102 66
-0.558867 -0.313686 7.48542 96 97 58
1.42946 -0.229617 8.56979 61 68 35
-1.53908 -0.393827 8.60961 130 86 58
-1.01254 -0.360414 9.02487 58 44 20
0.358215 -0.24035 8.01912 60 62 50
-1.60498 -0.350695 8.48688 145 134 74
-0.175955 -0.238103 8.07638 74 72 48
-0.650685 -0.243264 7.72556 88 92 50
-0.6092 -0.225899 7.50327 85 90 46
1.68284 -0.157194 8.75766 86 66 48
0.703069 -0.169412 9.16711 34 12 8
1.18614 -0.110434 8.91928 93 76 48
1.57449 -0.106364 8.35925 82 60 43
1.27175 -0.113606 8.96372 90 78 52
-0.299294 -0.171894 8.57293 48 38 18
1.16957 -0.0780593 8.84232 42 32 14
-0.471253 -0.065587 7.11544 29 26 14
0.218349 -0.0670002 8.4173 60 70 61
-1.40546 -0.134902 8.35513 128 120 66
-0.407868 -0.0874781 8.31168 39 34 21
1.03024 -0.0142089 8.96032 36 24 10
0.627966 0.00806715 9.48878 22 12 10
1.31474 0.0556548 8.54756 45 39 21
-0.546899 -0.00940703 7.19747 50 60 38
0.887668 0.0446999 8.91086 32 16 8
-0.596922 0.00479133 7.17398 87 94 64
1.51134 0.0795273 8.18901 146 124 98
-0.566955 0.0094323 7.27155 66 76 52
1.34322 0.141594 8.35468 50 23 13
-0.542277 0.0804711 7.34678 48 54 43
-0.480195 0.0937804 7.34854 58 64 54
-0.0628426 0.117756 8.28964 59 62 45
-0.546189 0.086585 7.0604 36 42 32
-1.36005 0.0525977 8.20655 74 66 40
-1.33018 0.092565 8.66778 74 64 37
0.686489 0.203683 8.78233 30 27 16
-2.90052 0.00660499 8.53934 94 93 40
-1.40476 0.0673001 7.98339 82 60 44
-0.15072 0.1661 8.2625 64 68 53
-1.37554 0.100794 8.24234 99 88 54
-2.23784 0.034491 7.65689 84 82 46
-2.32204 0.0118434 7.83669 116 114 73
-2.38173 0.0127333 7.90049 136 130 92
0.607276 0.256379 8.72334 28 26 16
-1.68893 0.0775099 7.51372 98 96 60
-1.53197 0.1138 8.20885 122 100 63
-0.521883 0.168015 7.76836 34 35 27
-0.388663 0.204132 8.15134 24 26 16
-1.71816 0.0847492 7.27504 89 90 62
-0.261613 0.163886 8.17544 34 39 26
-1.3604 0.142293 8.10642 92 72 41
-0.678184 0.159311 6.87719 92 102 69
0.833881 0.315205 8.42951 34 32 16
-1.51284 0.152164 8.24883 124 85 66
-0.437683 0.225406 8.11876 25 20 12
0.809709 0.347917 8.40319 21 17 9
-1.4655 0.197831 8.19628 112 68 50
-0.103897 0.278337 8.2897 46 50 35
-0.515547 0.254756 7.59805 20 14 6
-0.0328345 0.287852 8.4267 53 57 42
0.310888 0.343042 8.54791 46 44 32
-0.403751 0.276791 8.07847 14 15 6
-0.344135 0.29157 7.9905 30 33 20
-1.42963 0.26252 8.0588 136 101 80
-2.06648 0.195842 7.02733 85 82 60
1.1649 0.449158 8.50459 22 8 5
-0.493966 0.310888 7.80065 60 60 47
-2.41583 0.188584 7.11935 105 97 72
-0.560092 0.320475 7.17268 36 36 24
-0.733387 0.282572 6.62062 58 72 44
-0.657172 0.327699 6.87289 18 16 6
1.05147 0.485624 8.40506 22 11 7
-0.834664 0.288473 6.68929 58 69 29
0.563916 0.446375 8.08892 28 30 18
-0.57598 0.330063 7.03716 49 52 36
-0.0335858 0.439341 8.3877 28 26 16
1.11664 0.536099 7.85963 102 60 42
1.23431 0.520658 7.75367 134 88 66
1.16833 0.530465 7.68935 148 102 82
1.29683 0.559317 7.79939 118 74 58
1.13967 0.547222 7.79968 150 106 82
1.29638 0.575131 7.78477 132 85 70
-0.603615 0.431906 7.0364 24 22 16
-0.0824036 0.494753 7.55257 96 75 64
0.946694 0.603025 8.25394 19 8 4
1.17177 0.562403 7.79139 140 96 76
-1.35622 0.454425 8.15105 108 62 31
1.29813 0.599592 7.79261 130 85 70
1.38625 0.602249 7.88807 126 98 88
0.695741 0.552377 7.7069 23 15 6
1.11662 0.604827 7.77721 109 64 38
1.09132 0.607818 7.77224 91 48 18
1.30529 0.652698 7.79845 136 98 86
-0.628562 0.463692 7.01424 16 13 7
1.30615 0.677872 7.76708 143 108 101
-2.56907 0.375636 7.40134 70 66 48
-0.772914 0.514617 7.1973 45 47 30
-0.697716 0.526281 7.4654 57 38 22
0.528741 0.620906 7.37627 44 47 27
0.845754 0.685129 7.58292 48 26 14
-2.55591 0.376641 7.06492 70 66 49
1.23278 0.727821 7.7221 78 42 28
-0.87923 0.50081 6.4807 88 93 64
-0.40502 0.641891 7.63837 54 24 18
0.709487 0.698831 7.22181 109 88 68
0.834771 0.711572 7.26612 102 72 54
-0.897853 0.531584 6.58369 63 76 47
0.345846 0.704993 7.58687 28 16 6
-0.842541 0.536403 6.65983 18 28 11
0.458712 0.718187 7.3011 34 38 18
0.356119 0.731742 7.64635 40 23 13
-0.722375 0.63649 7.47349 76 50 36
1.01454 0.788382 7.62964 158 132 124
-0.798108 0.591988 6.93785 56 42 16
-0.882181 0.587173 6.55374 22 37 18
1.11028 0.809258 7.65612 104 76 66
1.51945 0.96824 8.70917 107 90 78
-2.7037 0.486552 7.11182 91 85 67
-0.151481 0.703193 7.33174 62 30 22
0.434456 0.750287 7.19194 38 42 21
0.918199 0.801856 7.42581 142 112 108
0.898973 0.809662 7.37227 128 97 92
0.976664 0.811829 7.53746 150 122 118
-0.160762 0.769399 7.45257 87 57 47
0.408944 0.780261 7.19834 76 59 42
0.853138 0.815999 7.26225 96 62 54
-0.111975 0.776108 7.4048 110 74 61
0.428008 0.793037 7.15559 92 76 62
-0.9684 0.63014 6.35187 94 96 72
-0.322849 0.781023 7.34742 134 88 63
1.31898 0.974019 8.34172 51 28 22
1.55159 1.10929 8.86402 102 90 78
0.978214 0.899597 7.52394 96 64 58
-0.96902 0.645848 6.34148 82 90 60
-0.844273 0.733017 7.07376 147 98 72
-0.795933 0.817473 7.71283 144 92 68
0.768402 0.882526 6.99501 53 36 20
-0.609351 0.843098 7.6303 126 74 49
0.53701 0.833571 6.95035 32 36 14
1.22795 1.00895 8.12259 56 30 22
-0.580273 0.851956 7.63261 138 83 60
-0.3982 0.85943 7.43481 96 48 22
-0.301476 0.84753 7.273 58 16 5
-0.139512 0.868818 7.43054 84 43 26
-0.516109 0.860687 7.53041 150 96 68
-0.490526 0.864166 7.53173 159 104 74
-0.343579 0.874604 7.53264 49 6 0
-0.810337 0.893295 7.8227 66 30 24
-1.17243 0.714581 6.38445 128 123 94
0.515816 0.924369 6.97634 56 45 28
-1.18804 0.726361 6.372 96 92 61
-0.148922 0.922945 7.30308 83 46 37
-1.05104 0.741939 6.29501 88 94 72
-0.784525 0.986947 7.94359 87 40 28
1.22962 1.15625 8.16332 50 24 18
-1.05947 0.760862 6.28108 101 104 84
-0.782182 1.01252 7.91848 112 78 70
-0.774878 1.04622 7.93514 70 36 30
-1.06319 0.783119 6.1951 63 70 48
-0.770894 1.07532 8.01717 64 26 18
0.361965 1.12173 7.58372 46 16 13
-1.07956 0.837083 6.35742 86 88 67
-0.889653 1.16178 8.19004 58 16 4
-1.08254 0.859368 6.38681 144 138 120
-1.13791 0.865085 6.13949 82 86 66
-1.26886 0.870668 6.22525 100 94 68
-0.759929 1.17643 7.94659 59 26 20
-0.736422 1.17667 7.93676 92 54 47
-1.15116 0.870747 6.12477 98 100 80
-1.27507 0.884264 6.20704 91 86 58
-0.859403 1.21889 8.07987 73 36 24
-0.721805 1.23746 8.05074 58 31 26
-1.18239 0.907195 6.13039 88 90 70
-0.740228 1.27022 8.1025 72 36 24
0.375193 1.29048 7.69723 76 49 46
-0.894859 1.29284 8.35615 72 33 21
-0.859715 1.34596 8.33549 54 14 7
-0.838107 1.36913 8.30386 70 25 12
-0.443545 1.33485 7.90225 82 32 21
-0.395294 1.33369 7.89096 83 36 25
-1.33161 0.973263 6.19207 108 104 78
-0.81658 1.34464 8.09724 80 34 20
-0.487295 1.36139 7.94923 78 30 18
-1.358 1.00882 6.14349 118 113 89
-0.310545 1.46686 7.96905 58 22 14
-0.0739605 1.41861 7.82867 60 24 15
-1.37151 1.02612 6.19983 81 81 52
-1.25907 1.01015 6.06174 82 88 64
-0.880366 1.48208 8.43102 66 20 10
-0.853551 1.52792 8.58718 66 22 10
-1.26821 1.03207 6.08923 86 90 69
-1.44858 1.10907 6.25588 126 123 102
-0.26439 1.51007 7.91692 80 36 27
0.182847 1.58137 7.83396 81 36 28
-1.31594 1.12713 6.07199 107 106 86
-2.96522 1.07889 6.41045 95 91 72
-0.880855 1.81095 9.06921 56 20 11
0.354626 1.67247 7.93075 64 28 22
-0.291922 1.54994 7.77834 88 38 26
-1.36137 1.17427 5.99879 70 69 50
-0.801643 1.81178 8.81535 64 20 10
0.110037 1.70216 7.91805 83 40 33
-0.365733 1.7335 8.15613 76 28 19
-1.38403 1.20705 5.99105 85 84 68
-0.93077 1.92973 9.06574 127 99 79
-1.20667 1.26289 6.16793 57 56 34
-3.04926 1.18611 6.37071 70 64 42
-0.486019 1.80457 8.29321 68 20 10
-1.44414 1.26891 5.8883 68 68 48
-0.225369 1.94208 8.32397 84 33 20
-3.09474 1.27924 6.399 161 146 132
-0.822224 2.16187 9.1828 104 71 54
0.228221 1.92245 8.07446 73 26 21
0.240866 1.91098 8.0896 74 29 24
-1.48569 1.31759 5.95728 84 80 64
-0.825877 2.21314 9.20717 96 62 45
-0.137417 2.04074 8.32291 69 20 12
0.124771 2.07876 8.34138 93 36 27
-0.823107 2.25231 9.22382 122 92 78
-0.802765 2.27691 9.2955 70 26 18
0.494035 2.13331 8.28007 70 26 20
-0.801477 2.25107 9.14517 120 88 76
-1.53077 1.36982 5.85642 81 80 60
1.05007 2.43788 9.03482 72 38 31
-0.685296 2.35432 9.13229 92 50 31
0.150468 2.21021 8.37389 98 45 37
-1.57376 1.41894 5.89778 122 116 101
0.594509 2.38695 8.82356 96 54 50
-1.57435 1.42799 5.84745 130 122 106
-0.932967 2.20722 8.51875 143 124 116
0.938976 2.44947 8.88683 110 78 73
1.03451 2.47355 8.97928 100 71 64
0.734818 2.40034 8.70156 98 64 61
-1.63463 1.41349 5.88102 56 57 30
-1.61391 1.4467 5.85701 66 64 40
1.01925 2.49667 8.95849 122 99 92
-1.43437 1.48417 5.91692 154 142 132
0.991402 2.51849 8.90599 125 103 100
-0.580414 2.47472 9.03523 74 38 29
-1.44129 1.48498 5.87367 156 142 132
0.128203 2.34589 8.43208 81 27 20
0.671833 2.55683 8.88736 88 56 54
-1.67781 1.5074 5.84309 144 132 123
-0.517908 2.46718 8.78253 66 36 29
0.62143 2.64837 8.82754 126 104 104
-0.265516 2.7151 8.99785 134 94 78
0.398212 2.69176 8.76763 83 44 37
0.424418 2.69384 8.77 120 90 86
0.0511923 2.7137 8.72156 135 96 88
0.399739 2.72624 8.79377 136 104 100
-0.0611912 2.71714 8.72417 114 67 51
-0.000475823 2.67912 8.57372 130 96 88
-0.829584 -3.03176 9.75062 132 130 86
-2.27659 -2.4264 8.26024 91 87 70
0.202091 -2.92556 10.7016 148 155 104
-0.675448 -2.30391 9.14092 108 112 70
-0.597702 -1.93239 8.84467 114 120 75
1.73007 -1.45593 7.19535 64 66 30
1.5408 -1.25149 7.20835 82 88 64
0.218095 -0.632876 6.86917 84 91 82
-0.203455 -0.336836 7.85495 83 80 46
0.0203216 -0.288109 7.86579 50 58 50
1.29742 -0.269352 9.20724 140 144 109
1.50097 -0.164031 8.18574 46 46 17
1.31911 0.0150034 8.57501 44 36 18
1.35564 0.102849 8.46184 56 33 17
1.40423 0.0689918 8.27113 88 65 42
-1.42901 -0.0215361 8.28706 59 57 38
-1.89759 -0.0330287 8.29011 57 59 34
0.307998 0.11894 8.48642 44 50 36
0.113459 0.301867 8.37719 68 71 60
1.01903 0.642227 7.57773 104 68 40
-0.386081 0.65524 7.59052 78 39 26
0.727008 0.725498 7.08041 99 78 61
0.459135 0.748994 7.21335 38 42 20
-0.978379 0.657495 6.36325 76 84 56
0.174043 0.964847 7.43762 52 16 10
-0.80047 1.37807 8.28006 78 32 20
-0.669175 1.38376 8.14796 63 26 17
-1.2875 1.02414 6.13348 72 78 52
-0.287587 1.46908 7.77874 84 38 26
-1.45058 1.131 6.0869 84 83 60
1.06135 1.95684 8.65228 78 40 29
-0.79882 2.19226 9.48048 68 22 11
-0.107137 1.9885 8.20967 100 69 62
0.109427 2.34529 8.42805 77 22 13
0.192923 2.68589 8.79639 99 59 52
0.153443 0.718476 7.48944 47 22 14
-0.634242 0.839093 7.63408 80 44 27
0.627587 1.12606 6.67685 77 64 50
-0.522059 1.27071 7.94228 72 60 32
0.885574 1.43994 8.12236 68 36 28
-0.146396 1.42857 7.79483 68 40 26
0.362367 1.72557 7.99984 80 44 38
-0.123044 1.7569 8.00524 53 22 18
-0.838739 2.0683 9.15616 126 102 86
-0.0590987 0.016075 8.27693 82 80 65
-1.90398 -0.114647 8.48127 113 104 67
-0.242286 -0.979633 8.24001 84 94 56
6.37514 1.03133 12.821 86 84 54
5.55783 1.01174 9.24119 96 77 36
0.279934 0.645976 7.60755 32 31 20
1.26352 0.995691 8.20778 67 64 38
-0.154222 0.946823 7.51787 72 44 35
-0.187416 0.944674 7.5182 97 62 48
-0.58707 1.02871 7.8204 88 71 42
0.909576 1.35885 7.98649 49 44 24
0.907046 1.38724 8.01874 90 68 60
-0.657871 -0.414652 7.73387 146 138 98
1.54961 -0.0389119 7.80704 102 92 59
1.50286 0.0713216 7.80981 126 90 70
0.845115 0.683353 7.56046 78 48 36
0.460762 0.728164 7.214 86 86 66
0.200217 1.66331 7.92717 74 37 33
-0.101938 1.85642 8.165 94 56 44
-0.827125 2.20732 9.13304 124 95 83
2.13127 -1.64248 6.99557 63 72 33
-1.57067 -1.81148 8.32129 64 66 50
-1.92367 -1.01734 9.22674 100 101 66
-1.89479 -1.07189 9.64825 102 101 64
-0.53952 -0.772902 8.43624 64 68 30
0.678985 -0.539858 7.83316 86 74 56
0.077449 -0.487639 7.7762 81 84 52
-0.7841 -0.407772 7.80793 74 71 37
-0.685919 -0.344853 7.75436 126 125 82
-0.298751 -0.01534 8.60588 42 39 25
-0.339464 0.117149 7.90006 65 59 40
1.16624 0.472049 7.84702 59 53 27
0.781913 0.542996 8.51569 46 27 18
-0.681196 0.434862 7.25739 44 49 32
0.936076 0.619571 7.74755 100 74 60
0.946496 0.638872 7.7267 85 68 47
0.64028 0.592785 7.3307 50 44 26
0.714511 0.614852 7.31601 73 72 42
0.984413 0.789749 7.49348 98 69 64
0.977084 0.797642 7.28401 110 87 78
0.479302 0.859392 7.42 88 58 48
-0.362935 0.871907 7.44935 68 30 17
-1.20973 0.764194 6.47934 102 89 64
-0.827446 1.00003 8.05534 74 50 36
0.623267 1.03464 7.37897 43 23 10
0.710452 1.09788 7.50536 62 40 26
-0.881282 1.23462 8.17382 84 40 27
0.192646 1.60206 7.80911 85 32 24
0.179954 1.66704 7.91606 80 36 30
0.91203 1.89227 8.36575 86 37 27
0.786016 2.12973 8.3058 97 63 57
0.234422 2.23485 8.53848 50 26 22
0.0731534 2.68663 8.95927 135 80 10
-2.84367 -3.07146 8.67193 120 124 74
1.91401 -2.96318 8.73506 84 90 44
3.53417 -4.03522 12.3057 96 107 60
-2.27343 -2.27006 7.63779 58 58 26
-2.23785 -2.30089 8.49896 114 116 74
1.01848 -2.18459 8.44055 82 88 56
2.49219 -1.71041 6.96125 76 84 48
-1.19078 -1.76023 6.78769 126 125 78
-1.21937 -1.80155 6.9755 113 112 75
2.43813 -1.78922 7.35236 131 132 94
-1.8516 -2.16893 8.51811 106 108 73
-1.19226 -1.72033 6.78908 118 117 74
-1.13722 -1.81055 7.15976 126 124 84
2.14412 -1.60475 6.75132 82 88 52
-1.70896 -2.03337 8.46619 100 106 60
-1.67053 -2.00598 8.48987 77 76 51
-1.62895 -1.92348 8.35084 80 88 45
-1.05425 -1.71021 7.52408 103 106 58
2.17568 -1.55377 7.27924 92 96 66
-1.9074 -1.90715 8.49737 94 96 64
2.09166 -1.50607 7.32103 128 127 82
-0.889191 -1.51831 7.29809 103 108 66
0.272947 -1.02556 5.20969 96 92 62
-0.271213 -1.53948 7.72215 73 80 48
-1.74959 -1.6962 8.30524 77 77 47
-1.72501 -1.66887 8.29576 100 103 65
-1.69191 -1.64046 8.28199 110 114 76
-0.809356 -1.39593 7.16459 70 73 38
-1.65102 -1.59484 8.26483 72 69 38
-1.26428 -1.6381 8.66623 90 88 48
-0.841385 -1.33134 7.27708 98 106 64
0.249111 -0.981868 5.58048 84 87 72
-0.710989 -1.32619 7.4424 140 142 89
0.158311 -1.00432 6.04881 81 82 54
-0.683566 -1.22805 7.21324 128 129 75
-0.775295 -1.30133 7.68592 110 112 66
1.60398 -1.1804 7.59148 100 104 62
0.257069 -0.935433 5.85261 76 78 60
0.279883 -1.05828 6.72557 74 76 52
1.2534 -1.19379 7.78459 142 152 104
-0.0859934 -1.33207 8.5413 118 123 77
-0.590297 -1.10899 7.40576 140 140 86
1.12911 -1.0937 7.78058 92 92 54
-0.670451 -1.05093 7.33509 120 119 66
0.0762359 -1.099 8.08293 146 146 102
-1.30047 -1.1807 8.39237 92 91 59
0.0745864 -1.0736 8.07598 110 114 80
0.0729275 -1.04822 8.06893 97 98 68
1.03642 -1.01791 8.14021 80 86 56
0.159055 -1.00758 7.95283 124 122 85
-0.615632 -0.936174 7.19584 112 114 79
1.07567 -0.900226 7.61048 66 73 48
-0.7153 -1.08075 8.57257 89 90 48
-0.582463 -0.950336 7.50357 92 94 54
0.00891664 -1.03793 8.56854 120 120 74
0.0338455 -0.820271 7.13314 97 98 64
0.284534 -0.750448 6.72309 64 66 47
-0.314955 -1.01582 8.97032 102 106 64
0.11317 -0.869775 8.01517 79 84 60
-0.710584 -0.94594 8.44415 62 68 42
-0.527055 -0.766105 7.04473 154 150 99
-0.289041 -0.828523 8.23767 82 89 52
1.97793 -0.714923 8.09946 71 67 33
2.14308 -0.691335 8.40114 90 94 58
-0.666329 -0.806657 8.34509 50 54 27
-0.245545 -0.772536 8.36942 83 84 52
-0.455025 -0.773114 8.46727 68 72 40
0.345258 -0.600108 7.06731 99 101 64
0.59546 -0.688865 8.2489 114 107 70
-0.451091 -0.749236 8.48248 104 110 66
0.129463 -0.578331 6.79649 84 86 67
-0.430576 -0.722836 8.28756 74 65 32
0.200052 -0.582134 6.98415 72 72 52
-0.308873 -0.741876 8.68658 99 98 58
0.166918 -0.574189 6.91937 108 116 89
0.530927 -0.646626 7.99746 72 74 43
-0.0412314 -0.586157 7.39297 60 60 40
0.408055 -0.538678 8.09575 97 102 68
-0.261023 -0.5589 8.18354 122 126 79
-0.186245 -0.462128 8.08368 101 88 58
-0.276886 -0.410472 7.55195 64 69 42
-1.51281 -0.436136 8.09161 112 100 55
-0.71373 -0.422671 8.80021 134 120 86
-0.651938 -0.397648 8.33856 116 112 74
1.4575 -0.310374 9.31841 68 66 46
-0.355557 -0.231783 8.1782 54 65 41
0.811716 -0.200186 8.7663 52 36 18
1.28618 -0.159419 8.41488 78 70 42
0.317154 -0.187708 8.09162 76 79 55
1.28962 -0.138309 8.51926 56 57 34
1.20457 -0.14233 8.94798 118 109 72
1.73446 -0.0920317 7.8163 152 120 106
1.14545 -0.109556 9.23495 39 26 17
-0.906967 -0.198163 8.62602 90 80 65
1.2018 -0.0915945 9.04687 59 45 26
1.6171 -0.0334866 9.09882 62 56 37
-0.458624 -0.128514 8.42675 111 114 76
1.65169 -0.00471798 9.26568 82 71 58
1.63347 0.00253377 9.32391 126 103 89
1.66333 0.00809845 8.98494 110 93 61
-1.04399 -0.121016 7.9003 102 88 59
1.60709 0.0108224 9.33407 112 84 66
-0.870934 -0.109575 8.09939 80 60 46
1.60924 0.0302226 8.94382 120 91 74
-1.04796 -0.0969708 7.8776 66 54 32
-1.0242 -0.0956159 7.86117 108 83 62
-0.997096 -0.0946164 7.86124 110 106 74
1.61063 0.0580147 8.91932 86 70 52
1.60749 0.0719366 7.74079 106 86 54
-0.914666 -0.0605902 7.4885 82 76 48
-0.53817 -0.0389286 7.56386 44 47 28
1.43691 0.0699448 8.92102 69 65 50
-1.4486 -0.0808944 7.8018 60 52 34
-0.84046 -0.0470273 8.0342 48 43 24
0.882741 0.0505643 8.49886 43 33 24
1.6042 0.0852917 8.89973 123 104 82
1.69264 0.106736 8.14524 62 42 32
-1.05883 -0.0343839 8.02106 96 96 74
-1.77013 -0.0555634 7.15394 100 100 74
-1.33071 -0.0304234 7.32678 34 36 23
-1.15865 -0.0208733 7.32836 78 76 54
-1.36669 -0.0258683 7.23745 54 52 36
-1.03665 -0.0018967 8.03427 93 83 59
1.55924 0.147246 8.49085 134 104 76
1.58132 0.148198 8.47671 131 103 74
-1.37328 -0.00255641 7.49066 43 31 16
1.52349 0.171788 8.49106 74 58 31
0.728003 0.13609 8.4044 24 18 10
1.46971 0.171186 7.92132 82 48 32
1.63801 0.182076 8.27919 128 104 84
1.4235 0.185195 7.97524 144 98 79
0.708433 0.185396 8.5322 35 30 22
-0.901309 0.0863091 8.07191 36 34 22
-0.407056 0.107257 7.72523 98 97 73
1.14689 0.2138 8.73549 66 64 44
-1.47823 0.0440511 7.05395 64 64 39
0.668787 0.193119 8.44316 40 26 16
1.75192 0.261891 8.95722 117 83 64
-1.3455 0.081128 8.23038 61 60 38
1.47663 0.243388 8.31868 94 63 40
-1.43129 0.0555945 6.84495 41 40 23
-1.30815 0.0744229 7.41391 96 92 70
-0.990315 0.111853 7.92516 39 35 26
1.57444 0.277911 8.85006 60 40 24
-0.538647 0.156192 7.74671 26 27 19
0.613896 0.270928 8.96926 20 14 8
-1.11371 0.162789 7.83729 54 40 26
-1.08064 0.163774 7.77756 55 43 30
-0.486074 0.220195 7.77227 42 32 15
-0.528572 0.201751 7.51554 19 12 6
-1.19403 0.283781 8.56905 68 41 30
1.31242 0.415354 8.17544 90 80 48
-0.483148 0.3047 7.7301 86 62 48
1.29246 0.439176 8.16659 164 119 94
-0.575473 0.318443 7.26788 68 52 31
3.12028 0.856507 13.6516 89 75 48
-0.602544 0.347243 7.77179 78 84 60
0.558637 0.430341 7.80754 74 60 50
3.70704 0.900889 12.9011 92 80 50
-1.00694 0.355433 8.09111 64 52 26
3.80779 0.910585 12.7372 64 60 37
-0.764719 0.31925 6.96906 100 92 71
-0.723782 0.320187 6.94164 54 62 36
4.52891 1.01071 13.8603 98 96 64
4.80698 1.04243 14.1551 58 56 30
4.74269 1.0254 13.849 82 100 58
4.7216 1.0212 13.346 68 68 43
-1.17417 0.418695 8.79059 101 88 72
-0.730648 0.345652 7.01129 44 44 27
5.95421 1.15463 13.6611 80 71 42
6.13701 1.18133 13.8931 74 64 36
5.90019 1.14679 13.3 79 82 49
6.1512 1.18274 13.6496 75 68 43
6.11681 1.17228 13.4853 96 108 62
6.32652 1.19059 13.0599 101 112 64
1.01837 0.536841 7.67565 68 42 30
6.63391 1.23454 13.3727 82 68 43
6.67592 1.23917 13.3072 92 78 44
-1.47446 0.489189 8.66892 91 58 41
-0.724395 0.475195 6.79738 66 52 38
-1.12726 0.546666 7.84353 116 80 47
0.909969 0.672224 7.7528 44 36 20
1.56705 0.782668 8.54113 82 65 58
-0.85258 0.582338 7.59511 68 60 45
1.26172 0.730234 7.64617 92 80 64
1.52869 0.839194 8.50608 94 70 62
-0.824996 0.648064 7.72065 56 58 36
1.25592 0.798347 7.79173 92 60 53
-1.20841 0.66493 7.91713 117 78 56
1.33539 0.859216 8.02999 79 50 42
-1.18877 0.710223 8.04629 104 86 60
-0.852963 0.750225 8.13628 58 36 20
1.42722 0.92784 8.32596 87 62 55
0.397741 0.760546 7.24522 54 37 20
-0.89069 0.744563 7.86832 44 26 14
0.768702 0.798404 7.30246 54 51 32
-0.734379 0.740313 7.57914 114 76 56
0.486288 0.805562 7.3985 50 33 18
1.36597 0.955202 8.13907 77 49 42
-1.24246 0.802482 8.1805 105 108 68
-0.924826 0.816557 7.9046 64 37 22
-0.891028 0.796552 7.69871 76 46 34
-0.868082 0.795938 7.68011 103 68 55
0.83207 0.867388 7.26619 75 44 28
-0.887598 0.816476 7.66403 80 68 38
0.673605 0.853492 7.06365 28 21 11
-0.808692 0.810827 7.31335 63 48 40
-0.398817 0.832965 7.20994 100 80 44
-1.00184 0.956643 8.37082 64 51 34
0.706939 0.923743 7.07967 51 45 29
0.787392 0.908604 6.86041 64 58 38
0.68248 0.914506 6.86011 90 81 60
0.782876 0.927427 6.84466 72 63 39
0.768295 0.874491 6.40186 84 51 39
-0.366882 0.919807 7.30875 84 47 36
-0.334255 0.93034 7.3632 104 70 54
-0.313436 0.929485 7.34632 92 71 52
0.541037 0.940971 6.97275 67 38 22
0.622479 0.983049 7.23684 60 58 38
1.28485 1.14254 8.08132 75 50 40
-0.33596 1.00004 7.70548 90 50 40
0.638215 1.00073 7.15974 59 38 22
1.44241 1.26053 8.6828 103 86 69
0.983054 1.05364 7.33721 79 42 32
-0.790998 1.01038 7.83823 70 33 24
-1.11277 1.27902 9.69776 70 58 46
-1.02347 1.10162 8.37965 53 44 24
-1.07583 0.85391 6.46998 66 64 40
0.816628 1.02904 6.67917 80 48 33
-0.917072 1.16181 8.28977 70 40 24
1.05081 1.20548 7.57746 100 78 62
-1.04909 1.19237 8.28406 73 44 27
-1.04955 1.21526 8.27104 84 53 38
-1.07056 1.26512 8.53163 74 62 44
-0.747678 1.23845 8.11594 52 22 16
-0.889112 1.29086 8.35231 68 33 22
-1.11031 1.3454 8.63171 73 66 40
0.958449 1.23225 7.02455 62 50 27
-1.0401 1.3963 8.84672 104 81 62
-1.04059 1.42037 8.83156 97 84 55
-1.09125 1.21198 7.47011 78 54 36
-1.05257 1.52177 9.0087 99 62 44
-1.18412 1.21703 7.19452 78 54 38
-1.0965 1.26185 7.36658 80 80 60
-1.04064 1.57311 8.99065 114 94 74
-1.2658 1.06197 6.24121 82 62 47
0.843165 1.57692 7.72883 70 26 18
0.716201 1.32834 6.48224 72 43 33
0.692132 1.32245 6.3082 90 58 42
0.693232 1.34769 6.34271 123 104 96
-0.911082 1.68726 8.32962 88 43 30
-1.62942 1.60727 8.08169 90 70 58
0.683424 1.36077 6.04842 106 92 76
-0.912836 1.87273 8.91728 88 44 30
0.886192 1.54497 6.66569 109 84 68
-0.865535 1.90829 8.86228 84 33 16
0.817431 1.50743 6.3349 104 64 46
-0.820454 2.04033 9.10393 72 32 24
0.055555 1.88526 8.06579 105 58 46
1.28593 2.37715 9.34234 52 42 132
0.919093 1.64487 6.41658 116 78 63
0.785065 1.66893 6.46771 144 119 112
0.887717 1.65593 6.38732 115 80 66
0.825985 1.70977 6.56651 41 30 58
0.844953 1.67773 6.43615 44 24 15
0.841766 1.64767 6.29126 43 24 12
-0.699118 2.4102 9.48948 50 155 148
-0.713989 2.44565 9.52169 62 44 35
0.880064 2.38921 8.54973 94 96 42
-1.71328 1.51518 5.99646 151 126 116
0.620165 2.51597 8.57726 45 62 92
0.650164 2.52638 8.57791 53 40 134
-0.472199 2.56604 9.00821 24 135 132
-0.498502 2.58052 9.03376 52 38 68
-0.263406 2.63693 8.82305 96 138 35
-0.226812 2.68793 8.98081 68 43 130
-0.21588 2.62778 8.75071 72 49 40
-0.162527 2.67291 8.88419 204 180 173
-0.0795615 2.49385 8.26736 48 58 90
-0.124758 2.72444 8.97996 102 84 36
-0.0144531 2.54155 8.35007 52 125 87
-0.0159421 2.69238 8.7563 86 46 42
-0.0350782 2.69592 8.6534 60 38 126
1.48288 -3.54191 9.28914 104 104 60
2.70369 -2.3432 6.44426 104 108 66
-2.75901 -2.96282 8.32522 152 150 99
-2.64018 -2.87675 8.37575 76 85 40
1.67803 -2.77259 8.31522 102 108 68
1.7206 -2.77357 8.28692 62 78 42
-0.757967 -3.18931 9.98739 136 138 92
1.46387 -2.50222 8.36057 70 84 46
-2.43035 -2.49998 8.29401 96 98 61
-2.39881 -2.44816 8.31941 122 120 84
-2.28802 -2.33874 8.29423 85 82 53
2.50169 -1.79808 6.69957 60 66 36
2.42304 -1.78962 6.81586 115 119 74
-2.1658 -2.18577 8.2941 89 90 53
-2.1162 -2.13891 8.28086 102 99 60
-0.56298 -2.33954 9.15803 60 70 36
2.30885 -1.70502 6.95617 126 127 88
2.27449 -1.6818 6.94767 59 56 26
2.27326 -1.69911 7.06306 84 84 50
2.25607 -1.695 7.08195 78 77 44
-1.00329 -1.59325 6.67155 98 106 62
2.2014 -1.6519 6.95265 84 84 50
-0.627258 -2.10463 8.96601 102 106 65
-1.8956 -1.85213 8.30799 99 98 56
1.93861 -1.59279 7.20815 154 158 112
1.83699 -1.51991 7.16798 126 128 89
-1.5063 -1.82213 8.5889 86 88 49
1.98425 -1.44747 7.10008 98 100 74
1.83798 -1.37915 7.16256 54 59 33
1.88967 -1.40557 7.20531 64 69 40
1.62998 -1.43521 7.44929 146 156 112
-0.550974 -1.68968 8.79156 92 98 54
1.7066 -1.35762 7.10822 46 58 32
1.83227 -1.34411 7.125 135 140 101
1.66142 -1.359 7.16777 54 60 32
1.55293 -1.25513 7.14662 50 60 38
0.794772 -1.48322 8.64009 58 74 34
0.754195 -1.3619 8.60306 62 76 42
0.196399 -0.902573 6.04945 91 88 81
0.724362 -1.2684 8.54906 55 68 36
-1.30422 -1.16993 8.23233 117 112 71
0.720301 -1.09702 8.60882 62 76 40
-0.397775 -1.04738 8.36528 110 112 68
0.283209 -0.795578 6.61358 88 98 89
0.984928 -1.00323 8.25691 86 89 52
1.08193 -0.87804 7.47454 50 58 40
1.01965 -0.856858 7.47581 32 38 20
0.253552 -0.722805 6.63175 74 84 74
-0.353308 -0.864201 8.05508 115 114 70
0.272001 -0.707583 6.8134 75 86 73
0.573553 -0.908844 8.61418 36 46 26
-1.88832 -0.988238 9.47511 60 60 26
0.178913 -0.704051 6.86385 74 78 69
0.224768 -0.706959 6.73796 60 70 58
0.924423 -0.770547 7.6086 31 36 19
0.759896 -0.809817 8.11165 98 99 68
-0.46824 -0.807103 8.07731 70 72 30
-0.0854762 -0.675768 7.3024 91 88 60
-0.375432 -0.723336 7.69248 81 80 40
0.69463 -0.840846 8.55975 145 150 113
1.99301 -0.743056 8.10865 130 139 96
2.02497 -0.75022 8.16477 134 145 102
0.860034 -0.688563 7.68655 46 52 38
0.642209 -0.777531 8.60107 67 72 44
0.668107 -0.777912 8.60233 105 108 76
0.801406 -0.643138 7.72767 37 42 28
-0.336613 -0.670376 7.72796 68 68 32
2.03568 -0.659328 8.09889 118 126 85
0.563548 -0.697276 8.56889 62 67 41
0.647854 -0.561615 7.667 44 49 30
0.183859 -0.475134 7.2359 79 90 78
-0.313833 -0.505302 7.89838 71 72 32
-0.151743 -0.467192 7.52819 94 90 54
1.78616 -0.508842 8.31949 70 74 36
0.61977 -0.451278 7.75361 47 54 40
1.77083 -0.472659 8.34282 90 96 59
0.0827922 -0.418666 7.24286 61 70 57
-0.657468 -0.445479 7.7163 141 140 96
-1.52229 -0.359542 8.55557 113 76 50
2.00068 -0.357898 8.35073 136 148 109
-0.414832 -0.294669 7.33345 88 96 60
1.76238 -0.323931 8.15377 120 88 58
-0.922573 -0.320778 8.10315 98 90 58
0.406424 -0.276137 7.93528 72 74 61
1.4372 -0.308501 9.27587 106 118 80
1.38234 -0.282758 9.19956 56 32 15
0.200972 -0.314194 8.05825 70 78 50
0.958151 -0.290147 9.41012 138 140 95
1.69313 -0.236228 8.06495 80 57 28
0.808151 -0.257755 9.4504 105 68 38
1.67513 -0.229513 8.1379 85 65 40
0.43894 -0.230214 8.28103 40 46 32
0.996247 -0.259739 9.68826 98 67 42
-0.813658 -0.233497 7.65347 74 63 27
-0.489417 -0.136382 7.07945 102 108 75
0.662518 -0.216101 9.56293 55 20 14
0.311755 -0.153363 8.43052 30 42 29
-1.53564 -0.159343 8.54288 116 76 54
-0.99391 -0.147128 8.16843 131 126 74
1.13557 -0.144474 9.10576 69 46 30
1.08109 -0.12518 8.95885 43 24 12
0.165041 -0.106407 8.1455 58 68 58
0.654311 -0.0904178 9.68415 24 9 6
-0.821417 -0.0568958 7.1922 70 72 30
-2.71922 -0.0659381 7.59508 92 91 37
-1.18062 -0.0185474 7.43789 46 48 30
0.400022 -0.0240577 8.59531 34 36 26
0.634923 0.00506952 9.56729 17 8 4
0.570831 0.010883 9.37825 20 9 6
0.546486 0.0221372 9.45828 24 14 12
-0.395553 0.0656722 8.16757 49 52 34
-0.495127 0.0821129 7.80445 42 48 36
-0.145965 0.0804295 7.74293 60 61 40
-2.25807 0.0896371 7.79183 58 62 40
-1.51993 0.0863337 7.31046 84 83 46
1.18336 0.110194 8.21301 24 20 10
-1.60628 0.0787804 7.38911 86 82 51
-1.50952 0.0814365 7.2235 83 82 44
-0.390814 0.114095 7.93689 64 68 57
1.55776 0.0990425 7.75202 128 92 81
1.55587 0.127963 7.88975 144 106 92
-0.703525 0.148607 7.44913 48 58 38
0.747644 0.186102 8.2352 36 34 21
-0.607315 0.149328 7.49655 31 32 26
1.46093 0.138583 8.11328 140 92 70
1.52571 0.148952 7.84263 143 108 94
1.08829 0.189399 8.41925 21 18 7
1.44464 0.213341 7.78585 152 120 112
-2.11704 0.205048 7.04602 78 72 53
1.51109 0.22343 7.84064 124 97 80
1.3254 0.230362 7.86358 68 33 14
-1.26475 0.259999 8.24089 90 77 45
0.196915 0.254619 8.45897 82 84 77
1.6651 0.271494 8.48087 118 102 73
-2.21277 0.22914 7.05577 74 70 50
-2.17924 0.262317 6.72923 61 58 38
-0.281582 0.284344 8.3569 43 50 35
-0.746961 0.265952 6.68711 60 76 40
1.41485 0.321686 7.75106 158 124 113
-0.704474 0.334079 7.76388 40 39 26
0.775417 0.384351 8.52206 18 14 8
-0.793583 0.339948 7.7352 44 42 28
1.33155 0.404927 7.64805 157 119 112
1.47646 0.409876 8.08342 130 106 76
0.594656 0.453294 7.98397 14 14 6
1.30343 0.452068 7.71126 150 104 92
-0.714498 0.40784 7.64881 38 39 22
0.645699 0.465263 8.22427 13 10 4
1.38157 0.442049 7.72239 86 59 40
0.575199 0.472411 7.84401 38 42 26
1.4009 0.473288 7.84099 128 102 87
1.39631 0.498493 7.86108 148 126 114
-0.723538 0.469279 7.61601 49 31 16
0.771423 0.52581 8.20188 26 14 8
-0.257908 0.49977 7.54189 32 22 19
-0.16568 0.490957 7.53367 14 8 2
-0.193439 0.5045 7.57299 19 10 8
-0.825982 0.443849 6.459 77 86 54
-0.441432 0.500026 7.31654 9 6 2
1.5847 0.595479 8.60418 91 74 56
1.61091 0.611684 8.66842 142 132 119
-0.87141 0.481738 6.4679 94 98 67
1.13132 0.568835 7.73561 144 98 76
-0.0238632 0.6071 8.10498 24 12 6
1.06216 0.607318 7.85375 38 12 3
1.14662 0.597945 7.80217 148 101 84
0.969854 0.62933 7.78615 38 12 4
-0.733339 0.636157 7.73887 67 40 30
0.851974 0.658134 8.01708 51 28 21
-1.15814 0.578574 6.66133 86 81 50
-1.00471 0.662723 7.7327 48 40 22
-0.817416 0.661461 7.74931 116 82 56
0.682908 0.641126 7.27471 68 64 47
-0.677041 0.68972 7.70687 67 32 18
0.903508 0.700542 7.72358 110 78 59
-0.9486 0.595165 6.46357 67 76 48
1.14399 0.691578 7.67977 135 99 80
-0.944977 0.651481 7.58685 118 88 64
0.668587 0.70727 7.20631 33 36 15
1.1073 0.732084 7.63443 134 104 85
1.34167 0.731161 7.71816 118 91 79
-0.944825 0.612591 6.35462 106 107 82
-0.769303 0.705305 7.66561 164 112 84
1.33201 0.778363 7.70605 110 84 72
1.24186 0.774541 7.74162 101 65 53
-0.745473 0.782676 7.65821 156 103 70
0.687773 0.725573 7.07116 42 40 18
1.04225 0.78871 7.58883 128 100 88
1.15238 0.805643 7.69913 91 60 54
1.27527 0.794527 7.76823 122 92 81
1.3113 0.810158 7.79599 118 91 80
-0.970346 0.670644 6.34146 54 68 38
1.13056 0.810797 7.70691 80 50 44
0.689971 0.755558 7.02638 37 38 16
1.20375 0.827146 7.82584 111 82 75
1.30219 0.839599 7.89919 98 72 60
1.32713 0.841197 7.891 82 57 45
1.37354 0.862758 7.92259 78 56 40
-0.944409 0.698524 6.34963 14 24 6
-0.762661 0.825219 7.68075 138 86 62
-0.92879 0.717032 6.37041 31 41 23
0.768919 0.827484 7.34872 146 128 119
1.33249 0.890037 8.20266 65 42 32
-0.700926 0.892366 7.69305 74 27 18
0.697444 0.812565 6.99691 34 39 16
1.34456 0.92454 8.0391 53 30 20
-0.356504 0.871486 7.4635 83 36 14
-1.12455 0.964467 8.35933 122 98 79
0.321564 0.879474 7.34798 130 87 68
0.760234 0.876041 7.1201 60 45 27
1.55421 1.07562 8.89886 140 131 118
-1.08297 0.771311 6.26908 78 77 52
0.402483 0.876996 7.06687 142 114 108
0.484098 0.864383 7.07519 54 46 31
1.25053 0.97564 8.05637 86 64 58
0.137993 0.920684 7.38425 120 74 56
-1.04108 0.998438 8.22198 132 107 88
-1.08313 0.795098 6.50043 44 52 30
-0.98476 0.786917 6.32014 45 52 32
0.650965 0.917236 6.98127 40 44 22
0.776949 0.902212 6.92388 65 34 24
-1.06659 0.825604 6.38214 80 85 66
0.531651 0.914483 6.86186 39 39 18
0.976396 1.01624 7.75604 119 97 94
1.03538 1.03536 7.87027 58 29 26
1.34254 1.07742 8.33394 81 58 46
1.36833 1.08166 8.41041 72 49 33
1.51645 1.18421 8.77638 114 100 86
0.664589 0.926726 6.81703 32 36 15
1.31924 1.11774 8.35767 66 42 34
1.33138 1.11262 8.2666 67 42 32
-0.0207541 1.03506 7.54948 52 19 13
0.539546 0.973377 6.98052 42 32 17
-0.956821 1.15168 8.36251 78 38 24
0.665747 0.935649 6.79195 48 52 30
-0.924761 1.15994 8.31807 80 36 22
0.664618 0.971123 6.83697 44 48 24
0.949171 1.14617 7.92288 74 45 38
0.98329 1.09173 7.78135 70 42 35
1.18016 1.19206 8.22643 66 38 30
1.20686 1.17336 8.18216 58 30 24
1.37867 1.23254 8.5644 80 56 41
1.51772 1.30345 9.02457 120 110 96
1.04953 1.15506 8.00248 74 46 36
1.0318 1.1882 7.93321 64 35 26
-1.18326 0.933057 6.13521 78 80 59
-0.878416 1.22653 8.2115 88 50 36
1.29926 1.27493 8.41334 76 48 36
-1.02159 1.30956 8.53602 106 77 52
1.38709 1.31264 8.62106 90 68 56
1.28376 1.30137 8.47653 67 41 32
-1.00966 1.33309 8.49924 109 80 56
0.857251 1.177 7.38031 86 73 55
1.24509 1.34516 8.54397 40 19 12
1.45107 1.46526 9.13308 80 64 50
-1.19047 1.01205 6.07808 106 103 83
0.189997 1.30602 7.68291 68 30 24
1.28129 1.45914 8.70742 66 46 40
1.2708 1.42949 8.48373 82 64 55
-1.40691 1.0534 6.24023 82 82 56
1.12655 1.41606 8.33214 30 8 3
1.29699 1.50775 8.71637 114 102 94
1.45765 1.58898 9.19833 98 80 60
1.41748 1.6131 9.22093 96 64 42
1.46042 1.61518 9.19238 112 100 81
1.26298 1.53917 8.61195 65 43 38
1.26008 1.5575 8.57701 54 25 17
-0.983833 1.61013 8.79631 142 120 98
1.13006 1.52677 8.17978 42 20 14
-1.32924 1.15079 6.00711 76 76 55
0.860578 1.39246 6.89345 68 56 28
-1.20885 1.23645 6.17436 114 106 88
1.38128 1.75678 9.2879 95 70 54
0.201102 1.59197 7.81442 85 38 28
1.26529 1.80552 9.03727 86 54 50
0.0225522 1.62685 7.89413 86 46 37
-0.929123 1.88621 9.02443 118 86 65
0.178097 1.62486 7.8648 79 33 24
0.208685 1.59976 7.72353 84 38 27
0.910343 1.48635 7.01888 102 84 52
1.22693 1.77986 8.71026 86 60 55
1.37729 1.91303 9.31007 102 84 70
-0.946101 1.90562 9.15413 118 86 64
1.37479 1.94575 9.31253 94 74 62
1.36355 1.96633 9.27175 114 97 87
1.31295 1.99071 9.1787 89 60 47
0.0958491 1.79757 7.98702 94 48 41
1.29688 2.06467 9.22138 116 90 70
-0.708199 2.11359 9.03229 78 26 16
-0.195054 1.95468 8.35904 91 38 24
0.0505153 1.91144 8.1294 92 40 28
1.5741 2.36047 9.82574 131 126 120
-0.0553636 2.04286 8.23089 60 14 4
-1.69509 1.48865 5.8535 160 147 135
0.660814 2.16074 8.52826 84 44 39
0.674657 2.13318 8.4159 81 42 38
-1.6839 1.50463 5.84879 156 142 132
-0.050453 2.14706 8.34663 107 55 41
-0.0579204 2.19403 8.33145 103 52 39
-0.0282381 2.22124 8.34113 94 44 36
0.918731 2.44002 8.90305 106 74 69
0.96775 2.47115 8.97489 80 48 44
0.530934 2.44588 8.64386 66 26 23
-0.476058 2.57809 8.88482 118 88 83
0.446416 2.44917 8.55673 68 31 30
-0.412846 2.61121 8.88882 130 93 84
-0.333632 2.6809 8.99966 126 78 62
-0.0507524 2.54152 8.57954 100 52 40
-0.245498 2.66897 8.9142 135 87 70
-0.214255 2.67001 8.86972 140 94 78
0.001238 2.62784 8.67446 80 38 32
-0.184035 2.68833 8.81372 124 78 62
-0.0680557 2.66113 8.75652 148 103 88
-0.0161025 2.73295 8.79547 130 92 82
-0.0344573 2.70601 8.70656 116 76 66
0.0562591 2.73723 8.73393 142 109 103
0.0410095 2.7296 8.65517 128 95 88
0.00832485 2.77169 8.63885 140 112 110
0.184283 2.80894 8.65416 142 119 116
2.21677 -1.67829 7.08497 102 102 64
2.13238 -1.65894 7.11949 116 120 76
0.231007 -0.843646 6.32444 78 86 74
1.14726 -0.972332 7.47301 48 55 42
-0.344014 -0.856477 7.76011 66 71 39
-0.440574 -0.779739 7.96391 82 84 40
-2.1968 -0.896884 9.50914 99 97 62
2.00596 -0.694469 8.11947 58 57 27
0.219384 -0.483132 7.57353 70 77 50
-0.163108 -0.437056 7.52884 77 77 42
1.80999 -0.445254 8.34532 73 71 38
1.72888 -0.313268 8.12653 66 59 28
-0.223413 -0.244536 8.00159 72 74 54
1.69185 -0.235321 7.99478 72 58 35
-0.241059 -0.19483 7.94921 92 90 58
-1.58301 -0.0648689 8.3735 68 64 34
-1.54669 -0.0304984 8.18923 94 77 51
-0.199425 0.087346 8.12515 73 59 36
1.42432 0.217782 7.84504 117 100 92
1.4697 0.290198 7.94044 85 68 44
1.40332 0.34489 7.76888 110 93 74
1.22118 0.360365 7.81402 64 45 24
1.37249 0.382494 7.74262 86 70 57
1.4216 0.358395 7.82147 108 84 61
-0.225458 0.468377 8.9116 78 64 42
1.34504 0.429458 7.6933 154 128 122
-0.359934 0.419634 7.54137 30 32 23
1.21155 0.435752 7.79914 148 100 81
1.28802 0.505877 7.79445 98 66 46
0.857389 0.551988 8.34818 62 58 52
0.942275 0.577508 8.4008 18 10 4
1.23438 0.74239 7.73715 66 48 34
1.21088 0.805435 7.76892 103 74 62
-0.0301067 0.84563 7.31546 110 71 55
-0.739572 0.927781 7.86827 70 34 24
-1.11401 1.1061 8.63583 112 95 72
0.96315 1.07982 7.85234 112 72 54
0.934517 1.09749 7.82056 70 47 44
1.20739 1.16754 8.27982 51 41 24
1.25245 1.30878 8.44804 76 70 46
-0.694539 1.3871 8.15545 126 87 80
-3.03913 1.16388 6.36236 104 100 78
0.204963 1.48201 7.81705 60 35 24
0.699048 1.30508 6.59788 54 36 25
0.729132 1.3769 6.61692 60 46 30
0.88613 1.39693 6.56202 88 52 34
-0.780204 2.26979 9.10419 127 98 92
-0.654953 2.36021 9.08223 88 41 24
-0.512338 2.53231 8.81772 117 83 68
0.69271 2.54552 8.86286 84 50 44
-0.372006 2.63578 8.93666 102 54 44
0.695555 2.59219 8.78093 95 56 49
-0.0315471 2.57809 8.61851 106 70 67
0.644287 2.73089 9.0016 98 66 60
-3.99849 -1.73465 7.90824 128 128 84
0.237204 -0.860596 6.29169 98 100 82
0.539632 -0.875489 8.79422 56 60 31
1.62477 -0.377541 8.45582 112 101 68
1.94601 -0.265212 8.31039 113 108 80
1.82874 -0.156829 8.12118 98 90 66
1.5763 -0.0246632 7.99288 110 98 74
-1.10983 0.583257 6.49811 92 72 52
1.37881 0.690763 7.69777 70 36 22
-0.967231 0.655232 6.37847 69 56 38
-0.613662 0.894018 7.67794 82 34 22
0.972555 1.03935 7.94826 90 60 56
1.31096 1.08955 8.30792 81 52 44
1.0222 1.20546 7.94824 34 21 16
0.117506 1.31618 7.67575 40 21 16
-1.37548 1.19827 5.98006 37 36 26
-1.17972 1.22657 6.09721 44 41 31
0.731365 1.33812 6.46257 26 23 10
0.849313 1.59709 6.57544 60 40 20
-0.077087 2.16707 8.34654 53 28 21
-1.66932 -1.72979 8.29825 62 66 36
0.75932 -0.587316 7.86226 54 62 50
0.198277 -0.480121 7.16608 56 60 34
1.87623 -0.406941 8.24555 77 74 50
-0.353632 -0.254316 7.47509 70 70 38
-1.57671 -0.06357 8.47676 42 48 22
0.180633 0.219751 8.41538 80 81 70
-1.32546 0.288938 8.67585 98 84 52
0.694617 0.676172 7.34156 34 32 16
1.12349 0.718403 7.69388 140 102 84
1.24771 0.796143 7.77607 94 75 60
1.17 1.01781 7.99152 92 82 51
-0.697956 1.4234 8.1949 68 50 38
0.0940126 1.5195 7.89695 83 64 48
-1.41492 1.48833 5.80621 114 84 73
1.84664 -0.60265 8.32193 89 100 70
-0.357521 -0.505593 7.74663 96 110 70
-0.139688 -0.434214 7.5353 94 78 52
-0.630996 -0.385582 7.47102 72 76 44
1.78199 -0.373154 8.09188 48 26 9
-0.813062 -0.363969 8.04576 55 44 24
0.357052 -0.247911 8.01344 62 64 40
1.72184 -0.131485 7.93944 70 46 33
-0.0939722 0.0203221 8.36207 115 102 81
1.3379 0.0504524 8.49069 46 35 24
-0.226565 0.155671 8.02288 35 34 24
1.3449 0.193567 8.10712 38 26 14
0.26074 0.349338 8.58098 36 41 24
-0.533648 0.312434 7.50073 40 35 24
0.830276 0.362971 8.37471 18 14 8
1.32762 0.423037 7.68099 102 71 62
0.927783 0.448189 7.68699 86 68 54
1.13733 0.508066 7.74161 146 100 74
1.504 0.539692 8.148 122 92 70
0.00754127 0.636304 7.95205 51 38 36
0.282884 0.636942 7.65855 34 28 14
-0.731912 0.633453 7.74803 77 67 50
-0.689018 0.670979 7.63237 64 34 20
1.39161 0.791256 7.88821 90 63 48
1.34869 0.826047 7.8587 108 71 53
-0.816822 0.859635 7.83178 102 92 78
-0.633284 1.00554 7.71136 80 35 24
1.28268 1.12351 8.31943 66 33 23
-0.735799 1.15907 7.95212 68 32 22
1.43062 1.40473 9.00012 82 54 46
-0.899575 1.52625 8.77093 60 40 20
1.25385 1.52266 8.64329 69 56 46
0.0442643 2.21051 8.34871 118 77 71
0.557441 2.28876 8.49766 42 20 19
0.684407 2.65182 8.94495 72 36 34
-0.279092 2.69324 9.01725 66 42 128
2.38356 -1.7529 6.65979 92 96 58
-1.7602 -2.04358 8.35452 91 95 54
-1.72581 -2.02372 8.31063 116 119 70
-1.75987 -1.94229 8.39761 64 71 37
2.14485 -1.56189 7.29277 84 84 55
1.88721 -1.39111 7.08907 94 100 65
1.6371 -1.4271 7.38048 106 112 74
1.79855 -1.33215 7.08183 80 87 62
0.0449247 -1.39229 7.50039 92 102 60
1.59723 -1.40496 7.62159 95 100 72
1.79752 -1.34023 7.27432 110 122 82
1.51989 -1.34168 7.40783 90 97 56
1.49693 -1.33362 7.43964 99 104 63
0.0974912 -1.23996 7.03033 113 114 76
1.54869 -1.25426 7.17089 73 80 46
0.00185188 -1.2935 7.37604 102 104 72
1.53331 -1.25502 7.21056 84 94 66
1.68285 -1.25554 7.2562 67 74 48
1.469 -1.20654 7.02083 54 61 42
-0.00773468 -1.22162 7.26332 106 110 64
0.268471 -0.923838 5.84155 84 92 64
-0.997135 -1.30486 8.32597 78 80 50
0.0535829 -1.01763 6.54166 118 122 76
0.0539324 -0.98855 6.52648 101 104 67
-0.0429443 -1.04609 7.03292 108 109 80
0.0273377 -1.02271 7.16765 91 92 59
-0.404306 -1.1173 7.98275 98 102 58
-0.818009 -1.19651 8.59547 104 104 54
0.614624 -1.15436 8.3136 74 78 38
-0.816199 -1.16828 8.58176 65 67 35
-0.486672 -1.03584 7.86184 100 100 54
-0.790566 -1.15525 8.81298 104 108 66
-0.365873 -0.969397 7.59953 80 83 51
0.234384 -0.829394 6.53412 82 84 66
-0.701225 -1.103 8.75765 113 113 67
1.09576 -0.923543 7.6141 41 48 26
-0.409673 -0.99717 8.23653 140 140 96
-0.665334 -0.981523 8.56004 86 90 54
-0.0432248 -0.682537 6.82995 67 70 40
-2.20443 -0.94961 9.51551 122 123 76
-0.253504 -0.732362 8.05115 114 122 78
-0.92958 -0.712119 8.24441 146 143 93
0.146361 -0.578829 6.86992 69 73 58
-0.216097 -0.66273 7.9068 104 98 56
0.342541 -0.58487 7.39759 88 99 70
-0.836166 -0.631925 8.44241 118 120 75
-0.323043 -0.606184 8.11861 85 89 50
-1.13761 -0.724845 9.75858 84 85 40
0.468424 -0.526476 7.51653 111 106 74
0.295806 -0.481214 7.08585 68 79 46
0.584097 -0.546751 8.05191 80 70 44
0.428058 -0.520282 7.76871 74 68 46
0.664814 -0.492633 7.67799 40 42 26
0.419826 -0.519507 8.21589 60 59 36
0.288197 -0.471147 7.58562 110 107 68
0.379535 -0.479568 7.85318 75 76 42
0.630434 -0.474397 7.76926 101 108 78
-0.166045 -0.451929 7.6401 88 88 49
0.274404 -0.502428 8.73158 93 83 62
1.75461 -0.420049 7.57089 120 122 78
1.82262 -0.440717 8.28979 46 50 27
0.254377 -0.423173 8.26621 97 88 56
1.85234 -0.416651 8.29379 77 70 34
1.21721 -0.450352 9.82467 98 108 72
0.60719 -0.344157 8.19014 112 96 64
-1.58466 -0.32176 8.4798 148 140 94
0.40272 -0.289757 7.92303 49 54 41
1.73658 -0.28421 8.18518 73 62 31
0.619702 -0.328133 9.79988 98 92 60
0.685033 -0.310896 9.82834 102 94 62
-0.415443 -0.212645 7.6093 88 88 64
0.763301 -0.274581 9.6857 106 84 58
1.33655 -0.175651 8.54977 85 90 68
-0.842341 -0.141225 7.69271 70 55 23
0.233844 -0.143435 8.13043 28 30 22
-1.35343 -0.124459 7.64915 70 62 30
-1.36555 -0.0976944 7.43731 96 80 46
-0.925525 -0.0910266 8.03129 101 90 60
-0.90025 -0.0908794 8.02142 84 83 57
-1.5735 -0.0739092 7.24199 61 66 32
-1.73845 -0.0350179 7.08183 64 68 43
1.36249 -0.0315972 8.44098 50 32 18
-1.31881 -0.015332 7.67951 47 44 26
-0.483228 0.0116716 7.47481 29 29 18
-1.32747 0.000154576 7.48202 26 30 18
-1.04246 0.00025042 7.47777 38 40 26
-0.936406 0.00109334 7.32988 94 106 74
1.40346 -0.000248443 8.35356 98 70 55
-1.47888 0.0522163 7.11748 80 74 51
1.29901 0.0560671 7.8403 82 73 50
-1.09934 0.0612422 7.34732 89 77 61
1.42652 0.0668061 8.31507 40 27 10
-0.12547 0.0723708 8.1789 116 103 82
0.85524 0.0949193 8.53977 44 36 20
-0.871109 0.0980758 7.23062 71 62 30
-1.48079 0.10025 6.9254 88 72 42
-0.999647 0.108201 7.47512 100 95 78
-1.41311 0.0791723 8.08831 77 60 45
-0.65002 0.112577 6.83904 50 56 36
1.45425 0.146452 8.52183 92 66 54
1.49618 0.14532 8.57054 98 78 50
1.44659 0.140479 8.05255 72 48 30
-1.3113 0.102573 8.6149 88 80 50
-0.644669 0.134139 6.76332 82 86 61
-0.167955 0.162996 8.03931 61 52 34
-1.30641 0.132153 8.55419 136 120 94
-0.980281 0.17048 7.53021 102 100 72
1.38076 0.188972 8.10932 74 72 36
1.42038 0.188113 8.1544 99 78 52
1.48605 0.18248 7.77693 116 108 86
1.37819 0.185948 7.56256 162 136 120
0.660143 0.213255 8.40873 32 38 21
-1.12456 0.206603 7.81585 44 32 16
1.41235 0.228092 8.34255 78 54 40
-1.01556 0.21326 7.41778 40 37 15
1.51351 0.227549 8.06719 100 83 68
1.51383 0.239349 8.2213 129 112 96
-1.34326 0.250374 8.24983 125 94 75
1.57284 0.286901 8.10206 102 84 62
-0.331709 0.308292 7.75125 26 23 16
0.289212 0.342492 8.69251 54 43 28
-0.388919 0.292447 7.11944 100 93 77
0.424795 0.378034 8.91324 58 42 29
-0.781758 0.31809 6.85937 77 84 58
-0.833027 0.368919 7.67987 18 14 8
-0.750656 0.348158 7.22209 20 19 9
-0.781493 0.346894 7.03018 34 28 16
-0.224656 0.404376 7.79503 68 48 34
1.48892 0.438573 8.00707 85 72 55
-0.327483 0.412285 7.32765 8 6 3
-0.864902 0.39877 6.92864 60 47 20
-0.767366 0.389031 6.6194 62 62 48
0.635263 0.483267 8.02888 52 36 28
0.992089 0.535339 8.81385 72 50 38
-1.21722 0.482798 7.71468 66 46 24
0.617869 0.506387 7.70303 102 96 84
1.09738 0.540319 8.02868 49 21 12
-1.23844 0.543048 7.55463 88 92 58
-0.0485119 0.592565 7.64134 78 55 45
-0.913823 0.583384 7.20368 34 38 19
-0.0490189 0.638628 7.73046 66 62 37
0.323797 0.706743 7.61332 42 26 18
-1.01317 0.597079 6.31153 64 64 36
-0.860595 0.612254 6.40597 70 56 36
-0.870383 0.611212 6.32226 65 53 39
-0.735179 0.748214 7.7198 164 134 111
-1.01393 0.723288 7.36146 72 56 44
0.405732 0.773133 7.72295 44 30 18
1.59432 0.89574 8.835 80 76 56
-1.05833 0.814788 8.0065 60 36 24
-0.906778 0.802634 7.77995 104 79 59
1.43751 0.851163 8.20822 116 102 84
-0.593521 0.733784 6.95872 130 112 72
-0.982088 0.72637 6.80572 76 64 50
-0.853358 0.819103 7.71933 96 66 48
-0.82891 0.817907 7.70759 98 82 45
1.06499 0.821052 7.67826 94 72 62
-0.952102 0.702245 6.44875 51 54 38
-0.987166 0.755608 6.88509 36 30 16
-0.987314 0.775504 7.06813 88 84 65
-0.977126 0.901702 8.27701 82 64 48
0.728186 0.821427 7.10229 46 44 22
-1.05193 0.864039 7.15354 70 69 49
-1.02681 0.774055 6.17765 52 59 40
-0.361341 0.89284 7.16014 91 58 38
0.112242 0.903863 7.24889 75 36 26
-0.99931 0.807255 6.39863 80 73 52
1.54033 1.1029 8.83796 124 111 101
-0.303786 0.943443 7.45235 83 48 36
-0.990813 0.866965 6.60437 69 50 36
0.806266 0.942825 7.09949 98 84 70
-1.04005 1.14697 8.4048 66 32 19
0.792082 0.954171 6.968 62 38 30
1.54255 1.25838 9.04869 79 56 45
0.909125 1.08538 7.64232 42 18 14
1.52945 1.28241 9.02215 86 62 49
-0.978358 1.22718 8.13569 94 64 48
-0.736356 1.20519 7.93893 70 39 31
-0.7314 1.26387 8.26933 44 13 6
0.685742 1.04668 6.77715 52 40 26
0.623737 1.09996 6.98517 60 40 29
-1.03486 1.38842 8.68652 88 48 30
0.680598 1.17712 7.10677 62 44 27
-1.02664 1.46024 8.80271 100 69 52
0.685544 1.19469 7.08161 58 38 23
0.902087 1.20947 7.16527 54 36 21
-0.701698 1.35251 7.98435 77 36 26
-1.04016 1.52223 8.74422 102 92 66
0.720323 1.27059 7.17622 68 54 29
0.138154 1.36488 7.72183 68 48 32
0.541771 1.44449 8.05524 62 32 29
