ply
format ascii 1.0
element vertex 1263
property float x
property float y
property float z
property uchar red
property uchar green
property uchar blue
end_header
-0.484214 -1.03369 8.19642 232 231 210
-2.04184 -1.03754 8.24905 156 151 120
-2.21137 -0.80132 7.96086 217 201 149
-0.464431 -0.710183 7.20632 130 112 80
-5.92634 -1.28117 12.1727 198 202 205
-1.20391 -0.637154 6.81784 15 28 49
-1.46819 -0.661098 7.08719 148 31 22
-1.25847 -0.610792 6.84387 29 37 59
-1.02572 -0.603298 6.89097 126 73 46
-0.701174 -0.594839 7.12934 58 52 22
-1.01245 -0.548716 6.90125 146 114 77
-1.35255 -0.544932 6.91551 169 146 102
-0.737289 -0.505952 7.11954 96 90 70
-1.50323 -0.496483 6.97862 144 134 125
-3.11974 -0.686543 9.49475 225 228 232
-1.52632 -0.450734 6.98323 167 136 100
-1.90372 -0.452037 7.14009 215 200 156
-0.78148 -0.42713 7.11731 84 82 68
-0.504609 -0.422307 7.34278 26 26 26
-1.42933 -0.331752 6.99188 182 154 115
-1.29074 -0.309254 6.98355 164 142 102
-2.84254 -0.346861 8.74685 224 224 226
-0.580078 -0.236321 7.41072 124 96 47
-1.0767 -0.194064 7.10511 143 136 93
0.16804 -0.211778 8.32231 148 126 102
-1.44192 -0.154445 7.136 140 122 88
-0.491461 -0.151106 7.79863 116 96 47
-2.59587 -0.141523 8.43313 173 160 114
-1.3728 -0.0962676 7.17422 107 104 88
0.154173 -0.0569602 8.10132 148 136 118
-3.65765 -0.0713192 9.42245 218 218 220
-1.17827 0.00623827 7.3522 109 98 53
-0.372403 0.0381041 8.18367 136 120 85
-1.39714 0.0414478 7.35794 44 41 20
-1.09653 0.0436782 7.41771 98 88 36
-1.00044 0.0532104 7.39591 148 128 54
-1.15437 0.0950841 7.48159 134 112 50
-0.949363 0.12037 7.56782 112 96 40
-2.10588 0.180467 7.98963 170 166 136
-0.141253 0.242179 7.80299 142 128 118
-0.740884 0.283939 7.61802 141 121 60
0.340724 0.337007 7.91477 144 130 118
-2.17405 0.259625 7.5785 133 130 114
-0.960648 0.353391 7.71141 158 146 94
-0.910404 0.347251 7.59144 156 140 84
-0.929914 0.353334 7.7165 158 140 84
-0.93106 0.363558 7.63851 163 150 96
-1.73859 0.361378 7.54624 136 134 103
-0.989757 0.363171 7.54917 166 151 103
-1.35337 0.388142 7.55355 62 64 39
-1.32657 0.400835 7.41849 108 95 67
-1.34437 0.408811 7.52982 138 124 92
1.15989 0.44016 7.75114 183 177 179
-0.294256 0.85736 6.93876 189 180 183
0.0997198 0.894792 7.08578 186 179 182
-0.860623 1.14585 6.86191 194 186 186
-0.411846 -1.7422 8.52674 162 156 155
-1.06046 -1.3357 8.33658 184 180 171
-2.24348 -1.14769 8.11005 182 177 160
-0.567654 -1.09588 8.1466 218 217 198
-2.30624 -1.10087 8.02462 186 181 162
-2.31212 -1.07823 7.97236 184 178 164
-2.31608 -1.05856 7.89609 186 182 166
-6.22168 -1.63072 11.8412 187 188 192
-0.917293 -1.06452 8.17094 202 200 179
-0.214105 -0.984861 7.76397 125 112 110
-1.89924 -1.04609 8.23925 152 146 117
-0.357559 -0.878777 7.54885 178 150 136
-2.35197 -0.885452 7.7628 198 192 188
-0.0808519 -0.831645 7.80807 182 180 164
-2.26287 -0.831708 7.67855 165 162 145
-0.137173 -0.801578 7.80435 152 142 127
-0.85887 -0.691039 6.91048 170 164 140
-0.0782099 -0.770252 7.93739 162 156 154
-0.378795 -0.692107 7.31738 120 94 66
-6.01077 -1.20722 12.0835 190 192 190
-6.06377 -1.16506 12.0231 190 196 200
-5.55443 -1.1528 12.0101 196 200 204
-5.36646 -1.11026 11.6346 194 198 202
-4.30149 -1.09393 11.6522 180 182 183
-4.28494 -1.09972 11.7076 182 184 183
-4.21245 -1.08641 11.5933 182 186 186
-4.19732 -1.08921 11.6159 180 182 183
-4.16834 -1.08974 11.6238 184 185 187
-3.77872 -0.943935 10.2991 186 186 191
-0.0745316 -0.642571 7.94467 172 170 174
-0.977049 -0.576925 6.9489 136 113 76
-0.959918 -0.577231 6.91093 144 126 88
-1.96251 -0.501348 7.16698 194 176 133
-1.90501 -0.491834 7.17262 200 176 132
-2.01809 -0.415132 7.27659 88 89 82
-1.55925 -0.390268 6.97865 178 156 117
-0.189944 -0.449632 8.38667 102 94 66
1.27701 -0.530752 10.2639 176 171 172
-0.163777 -0.402371 8.22048 132 112 70
-2.13795 -0.38632 7.77567 100 101 88
-0.0710762 -0.331846 8.28119 138 126 102
-1.16115 -0.274785 7.02779 112 100 67
-1.01739 -0.276881 7.14085 130 122 90
-0.146456 -0.33973 8.88532 114 104 71
-1.39828 -0.261241 7.0494 150 106 70
-0.395848 -0.274927 7.81379 94 86 64
-1.82639 -0.257683 7.21096 174 169 133
-2.06003 -0.265708 7.62469 154 152 124
-1.62479 -0.227272 7.10976 160 127 78
-1.79528 -0.228045 7.2227 130 150 142
-1.64447 -0.223399 7.19219 162 134 88
-0.960547 -0.20176 7.14311 132 104 56
-0.168829 -0.18891 7.83685 147 132 106
-0.861915 -0.176286 7.24565 106 100 74
-1.5028 -0.176776 7.18832 161 128 78
-1.61963 -0.170589 7.14742 162 155 116
-1.47008 -0.168611 7.10664 128 88 50
0.119794 -0.170088 8.67302 136 118 86
-0.648811 -0.135541 7.61301 128 104 40
-1.42202 -0.13019 7.08542 118 124 106
0.185558 -0.134565 8.06613 148 121 100
-2.49005 -0.174609 8.61189 126 116 92
0.133101 -0.106751 8.03707 143 126 92
-2.51393 -0.14036 8.60466 108 94 76
-0.115776 -0.110574 8.66939 126 108 72
-2.50154 -0.132796 8.41287 116 108 90
-1.29344 -0.0810898 7.14328 32 21 12
-0.185431 -0.0593132 8.38357 111 101 78
-2.67515 -0.0812682 8.08084 134 110 84
-1.73291 -0.0297511 7.37625 141 128 76
-2.67217 -0.0576598 8.04521 155 146 122
-1.70502 -0.0269838 7.3765 132 120 68
-1.88223 -0.0349298 7.66836 88 84 59
-2.69912 -0.0547711 8.13975 123 116 108
-0.0942833 -0.0120099 8.2308 130 108 76
-2.27116 -0.0267823 8.44388 113 110 92
0.115604 0.0388492 7.94653 148 134 106
-2.64081 0.00518178 7.91049 156 142 122
-2.09111 0.0166361 8.17348 138 139 122
-0.772402 0.0495764 7.92531 66 46 11
-2.59542 0.0320042 8.04656 146 144 124
-2.24295 0.0334762 8.11998 168 166 130
-1.63151 0.0389497 7.46132 130 119 70
-1.22309 0.0473678 7.4378 103 94 54
-1.55677 0.0562144 7.4579 124 113 64
-2.59237 0.0516156 7.9252 147 143 124
-1.93921 0.0616778 8.12329 160 161 140
-1.16555 0.0669074 7.37919 139 124 62
-0.0593445 0.0952917 7.84256 145 128 100
-0.916099 0.0935459 7.54395 88 70 29
-0.817186 0.11965 8.10915 60 46 20
-2.00043 0.112403 8.18556 77 77 72
-0.576482 0.13827 7.93718 98 84 50
-1.46739 0.115698 7.64568 89 74 41
-1.43734 0.120899 7.57509 70 54 22
-0.87355 0.142782 7.67004 69 54 24
-0.157484 0.167147 7.55517 126 110 77
-0.926538 0.176892 7.77827 69 52 18
-0.153693 0.183838 7.62503 146 130 96
-1.02063 0.19595 7.66432 75 61 25
-0.178083 0.199615 7.29207 152 118 91
-1.95412 0.230622 7.77536 103 102 90
-1.1629 0.233197 7.69698 68 63 34
-1.36209 0.233193 7.58473 131 126 96
-1.33521 0.243179 7.73595 90 92 68
-0.792428 0.313662 7.16664 114 111 76
-0.746064 0.330886 7.29246 144 130 80
-1.14427 0.332303 7.40321 154 142 96
-1.39645 0.396439 7.36525 136 130 96
-0.62764 0.411947 7.30956 117 108 102
-2.04872 0.749138 6.86616 200 196 196
-1.05269 0.363544 7.43105 157 138 88
-1.30497 -0.416496 6.92429 126 86 54
-1.19692 -2.62043 9.12212 160 156 154
-2.32415 -0.985966 7.7457 180 176 160
-1.93589 -1.01695 8.19944 149 142 112
-1.62423 -0.870749 7.63817 160 154 127
2.51971 -0.637644 8.17687 149 148 150
2.038 -0.653202 8.32168 155 154 158
2.9521 -0.619194 8.24338 148 148 152
-1.35934 -0.469361 7.04871 156 124 87
-2.36814 -0.373126 8.0814 150 126 112
-2.21978 -0.357198 7.98788 142 131 88
-2.3876 -0.358961 8.2339 130 98 76
-1.84702 -0.281405 7.19768 192 178 128
0.100192 -0.271508 8.32201 119 106 74
-1.48567 -0.172758 7.11578 133 94 50
-1.46729 -0.109016 7.16587 119 118 90
0.0162149 0.0793981 7.92869 116 98 74
-2.31551 0.123239 8.12473 116 114 98
-2.25236 0.159257 7.99655 96 92 86
-1.80963 0.175492 7.93468 104 104 80
-0.918163 0.329751 7.71356 146 133 82
-6.61089 -2.84033 12.4458 186 186 191
-1.13184 -1.27637 8.00234 190 186 172
-0.735541 -1.24741 8.03544 204 200 190
-1.76381 -1.24622 8.12718 174 168 141
-0.810739 -1.24481 8.22855 222 222 208
-0.796189 -1.24224 8.24855 217 217 204
-0.971951 -1.22966 8.21723 229 229 212
-2.02296 -1.24619 8.28243 176 170 152
-0.25429 -1.09226 7.76236 166 162 160
-6.61388 -1.85674 12.3556 184 186 190
-0.245727 -1.1174 8.00525 195 190 182
-1.57823 -1.0739 8.3748 163 158 132
-0.209214 -0.9138 7.89913 142 133 134
-2.26655 -0.869582 7.48309 214 208 176
-0.0143603 -0.829744 7.47381 171 168 158
0.161067 -0.807456 7.65295 167 162 160
-0.326688 -0.779325 7.39652 124 108 70
-0.143192 -0.737809 7.69042 150 142 132
3.58235 -0.820615 9.44817 150 148 150
-6.25694 -1.20303 12.3431 194 198 203
-5.18502 -1.06792 11.2672 195 198 202
-4.2714 -1.07668 11.4546 182 185 186
1.02153 -0.751155 9.20282 163 163 164
1.03622 -0.640783 8.23173 164 162 164
1.61909 -0.736043 9.18697 160 158 161
3.09097 -0.887392 10.7514 160 158 161
2.9608 -0.844047 10.3163 160 159 162
3.57163 -0.814319 10.0789 150 150 152
1.43865 -0.889641 10.6495 165 163 167
3.42288 -0.772591 9.68787 149 148 152
3.8684 -0.842967 10.4299 150 150 153
3.68551 -0.787684 9.86348 148 148 150
3.71897 -0.782344 9.81395 146 146 148
4.24538 -0.872504 10.746 146 144 146
3.92003 -0.797244 9.98156 148 147 148
4.09281 -0.822066 10.2791 152 152 154
3.89155 -0.779767 9.80569 148 148 150
-0.373759 -0.567653 7.49416 124 107 76
0.246875 -0.605491 8.42363 178 175 170
-0.613716 -0.499864 7.19296 34 20 14
-2.22536 -0.528942 7.65468 162 160 154
-2.00861 -0.498287 7.3497 198 180 138
-0.284868 -0.51028 7.96405 166 158 152
-1.95898 -0.425658 7.22032 102 94 78
-0.0722598 -0.503195 8.95133 49 43 45
-0.0252662 -0.501261 9.0166 101 92 74
-2.08746 -0.427567 7.6577 129 131 115
-1.75272 -0.378116 7.0826 179 156 114
-2.09608 -0.398114 7.665 116 116 104
-2.01493 -0.365964 7.36491 92 92 78
-0.56516 -0.297601 7.43103 116 92 39
-0.273892 -0.309401 8.32255 47 51 47
-0.17896 -0.363457 9.1071 83 74 48
-0.0553539 -0.336162 8.68367 142 128 106
0.118285 -0.308533 8.51933 138 119 84
-2.48288 -0.328568 8.99235 173 160 108
0.174684 -0.272781 8.46835 120 108 82
0.119123 -0.262953 8.26035 121 108 84
-0.344138 -0.246337 7.85668 68 73 70
-2.66125 -0.287655 8.55216 72 70 75
0.0711313 -0.2505 8.70674 128 112 78
-2.67037 -0.251606 8.56866 168 156 117
-2.64078 -0.236466 8.52682 167 152 109
-0.936158 -0.16004 7.19011 91 76 46
-2.01371 -0.145614 7.75683 80 70 45
-2.40205 -0.131299 8.45215 154 155 132
-2.34832 -0.12279 8.39649 88 88 73
-2.35748 -0.106194 8.46685 136 142 126
-2.53159 -0.0927108 8.31503 122 116 88
-1.93251 -0.0622075 7.85875 110 104 66
-2.0046 -0.0627507 8.13576 120 117 88
-1.82429 -0.0256515 7.62276 82 82 56
0.153607 -0.0037721 8.23944 152 136 108
-0.96114 -0.00987561 7.43102 80 65 34
-1.57112 -0.00733478 7.32463 134 128 84
-0.684204 0.0181419 7.66376 104 87 54
0.115325 0.0218623 7.83609 152 124 102
-1.31406 0.0213786 7.29633 56 48 23
-1.89746 0.0215368 7.79308 160 150 122
-1.60014 0.0317299 7.48794 130 116 69
-1.71847 0.057798 7.99379 107 100 50
-1.3424 0.0438152 7.37561 36 21 6
-1.19869 0.0508643 7.47996 72 59 20
-2.68059 0.0438101 7.91164 188 186 163
-2.17186 0.0514806 8.17127 151 151 132
-0.951062 0.0885652 7.69555 123 104 42
-2.20203 0.109142 8.19503 148 146 131
-1.02534 0.11485 7.55693 115 101 48
-0.0786386 0.13749 7.80309 132 120 86
-1.90167 0.140524 8.00108 134 124 91
-0.0796932 0.159883 7.29574 42 33 26
-0.22999 0.194602 7.60595 92 79 56
-0.0964766 0.193123 7.4264 110 102 92
-0.423445 0.206663 7.88176 118 105 85
-0.625726 0.212554 7.85657 114 98 40
-1.51666 0.21704 7.80641 157 155 114
-1.60039 0.229883 7.36565 168 165 125
-0.677621 0.309403 7.51297 140 120 64
-0.767996 0.307336 7.30514 126 115 70
-1.94368 0.347532 7.1157 146 146 136
-1.37733 0.385853 7.25766 124 119 87
-1.64334 0.386256 6.99982 92 91 84
0.855154 1.0067 7.17503 173 168 170
1.16528 1.13995 5.60303 168 164 164
-11.2204 -6.43245 23.1957 192 196 198
-1.287 -1.31793 8.22948 188 184 174
-1.25173 -1.29218 8.08874 189 186 175
-1.24446 -1.33591 8.32963 190 186 174
-1.36939 -1.39863 8.68171 191 186 174
-1.18846 -1.33982 8.34478 192 190 176
-1.41879 -1.40786 8.76566 193 190 176
-1.66548 -1.25378 8.08748 186 180 154
-0.70628 -1.23459 7.98051 213 210 194
-0.640986 -1.22611 8.17224 238 238 224
-0.969099 -1.21971 8.32861 244 244 230
-2.22674 -1.25439 8.56403 181 174 153
-0.584443 -1.19192 8.29444 231 228 210
-2.19888 -1.13852 8.01494 180 176 156
-0.63991 -1.16858 8.36673 226 222 202
-0.832298 -1.15308 8.34993 215 216 195
-2.21563 -1.00558 7.44578 200 198 190
-0.834808 -1.1295 8.62768 210 208 188
-0.204282 -1.0284 7.86773 146 137 132
-6.06308 -1.57803 11.5914 192 192 197
-0.222879 -0.959522 7.68389 116 100 98
-2.32199 -0.959688 7.59039 198 197 194
-2.35577 -0.942777 7.74114 206 198 192
-2.28889 -0.906258 7.49352 188 164 150
-0.310517 -0.869915 7.41796 126 101 78
-0.31945 -0.927232 7.80586 140 92 89
-0.363985 -0.893697 7.77078 104 49 36
0.0344283 -0.827976 7.39461 170 166 167
-0.00941754 -0.810152 7.32357 174 170 164
-2.30081 -0.861872 7.63807 216 216 202
-2.19693 -0.801878 7.22513 121 122 132
0.13372 -0.805864 7.59955 156 150 142
0.205529 -0.875449 8.28399 143 135 121
-2.16451 -0.768501 7.32312 198 138 109
-0.296026 -0.760796 7.60168 110 98 66
-2.20004 -0.753363 7.45368 222 205 170
0.0751029 -0.741087 7.50443 176 168 154
-0.152453 -0.729199 7.75537 145 140 132
-0.181207 -0.693529 7.59091 146 140 132
-3.76299 -1.04367 11.2906 206 210 212
0.646607 -0.716152 8.91244 165 164 167
0.617158 -0.645737 8.21797 170 169 174
2.10276 -0.811341 9.99023 161 160 164
2.30147 -0.864027 10.4676 160 159 162
1.80396 -0.660928 8.47254 160 158 162
4.02779 -0.836202 10.4162 150 150 151
-1.36711 -0.53673 6.808 174 157 113
-0.620541 -0.561559 7.18197 50 62 59
-1.46038 -0.517759 6.80627 154 154 124
-1.39913 -0.491096 6.8697 172 155 112
-1.47566 -0.497501 6.99757 136 121 104
-0.275832 -0.545964 7.92508 164 155 154
-0.363413 -0.492395 7.72831 134 120 88
-0.414215 -0.460957 7.41787 127 110 67
-1.76128 -0.415498 7.16093 187 182 142
-0.352936 -0.440093 7.7162 116 94 48
-0.0621446 -0.484771 8.76144 56 50 42
-0.41479 -0.389891 7.61387 124 108 68
-1.7314 -0.362109 7.06701 180 163 124
-0.6631 -0.343746 7.208 38 43 42
-2.44143 -0.40148 8.53541 205 196 164
-2.40056 -0.396544 8.43826 194 166 130
-2.32905 -0.345772 8.18697 161 146 116
-2.40584 -0.36485 8.58483 162 152 110
-2.04633 -0.302366 7.4578 128 130 106
-0.504151 -0.285389 7.47587 124 102 56
-0.374896 -0.328347 8.50841 107 90 56
-0.327946 -0.278308 7.86201 52 58 54
-0.342778 -0.326064 8.6307 60 59 50
-0.0885343 -0.345156 8.70501 136 118 94
-0.12796 -0.294111 7.91267 146 132 112
-2.25733 -0.313462 7.88114 158 150 104
-2.35974 -0.320963 8.39578 174 160 107
0.148723 -0.272623 8.09189 64 60 62
-2.01541 -0.258367 7.32855 149 148 121
-2.59393 -0.30898 8.62477 177 153 114
-2.22823 -0.284894 8.23582 132 124 90
-2.17657 -0.277406 8.04901 92 88 62
-0.28732 -0.224113 7.65428 120 108 86
-2.29278 -0.271955 8.48557 168 157 120
-0.43597 -0.213756 7.47207 108 89 52
-2.56455 -0.264684 8.28337 166 156 115
-2.36828 -0.260963 8.67665 74 72 60
-2.35613 -0.237443 8.62888 106 107 92
-2.58843 -0.207345 8.4233 170 158 112
-2.09276 -0.172331 8.04229 112 108 78
0.205559 -0.103424 8.02758 128 78 70
-2.02291 -0.115405 7.87444 136 129 100
-2.26064 -0.0986236 7.8745 110 110 98
-2.41458 -0.101363 8.09873 89 86 74
-1.05391 -0.0674834 7.19702 83 81 59
-0.806961 -0.0566811 7.01244 134 118 66
-2.5346 -0.092155 8.42668 118 120 107
-2.61613 -0.0600504 8.16624 148 144 110
-0.606855 -0.0187336 7.35941 111 91 67
0.142218 -0.005407 7.86473 164 130 116
-1.76926 -0.0191114 7.38527 120 116 82
-0.669893 -0.00820158 7.92427 102 82 36
-0.744998 -0.00303345 7.36132 118 99 41
-0.73347 -0.000388714 7.70581 112 84 20
-1.77166 -0.0186553 7.66295 114 97 55
-1.41943 0.00499713 7.15338 140 124 72
-0.938426 0.015005 7.43316 137 123 61
-0.700282 0.0240286 7.50815 98 76 39
-0.669983 0.0236728 8.01073 112 99 70
-1.76071 0.0259505 7.64227 114 104 72
-1.04284 0.024132 7.15576 52 38 13
-0.752899 0.0281244 7.8587 80 60 14
-0.978794 0.0251411 7.39439 104 91 40
-1.31855 0.0406326 7.52427 75 62 32
-1.02035 0.0398492 7.4188 141 124 56
-1.74962 0.0393893 7.64938 72 68 42
-2.04969 0.042623 8.19204 120 118 94
-2.01346 0.0434215 8.39603 114 115 100
-1.53079 0.0517202 7.34392 128 120 68
-2.02632 0.068178 8.14531 186 182 143
-1.99712 0.067141 8.38231 154 154 131
-1.08162 0.0693051 7.48428 142 126 54
-1.76974 0.0841907 8.03279 158 160 129
-0.331024 0.102451 7.76719 110 97 82
-0.355883 0.107205 7.82786 92 78 67
-1.79898 0.100228 8.14555 120 121 94
-1.10139 0.0996034 7.47032 136 122 64
0.00994363 0.118925 7.50894 105 56 44
-2.30714 0.102909 8.15515 106 104 94
-2.10617 0.110631 8.02326 80 79 65
-1.24874 0.116916 7.38957 80 71 34
-1.30346 0.12347 7.47844 70 64 29
-0.214169 0.141682 7.85788 102 97 78
-0.117535 0.140636 7.67483 106 91 64
-1.38517 0.126963 7.56275 47 40 13
-1.34976 0.126968 7.56898 58 54 17
-0.535624 0.144359 7.67865 86 72 50
-0.087697 0.160153 7.38393 66 59 58
-1.94183 0.143954 8.06176 147 146 121
-0.206534 0.174633 7.67121 112 102 82
-0.639897 0.195225 7.74534 84 66 30
-0.380796 0.214392 7.11135 134 128 104
-0.275693 0.233716 7.93474 112 101 72
-0.190616 0.226413 7.40601 112 38 34
-1.41634 0.214749 7.42502 122 112 74
-1.3805 0.219502 7.66856 126 123 90
-1.31576 0.254626 7.5609 120 124 94
-2.40436 0.241924 7.59565 180 158 148
-0.568152 0.306284 7.73705 124 109 83
-0.811998 0.322144 7.34883 118 114 79
-0.98847 0.328514 6.79149 160 148 96
-1.38478 0.406926 7.63848 92 89 71
-1.76664 0.365217 6.86878 156 120 109
-1.11943 0.39125 7.07683 130 66 44
-1.44758 0.394803 7.08017 134 98 77
-1.98851 1.04287 5.96527 189 185 184
-2.41919 1.22818 5.49742 194 190 192
-0.825297 -1.27193 8.24191 218 216 200
-1.91005 -1.3 8.45026 185 180 162
-0.862131 -1.20486 8.08922 225 226 212
-0.220539 -1.17748 8.3378 170 164 162
-0.20417 -1.05701 7.87376 150 146 142
-6.34083 -1.68664 11.9417 188 190 192
-1.50327 -1.07271 8.34881 168 162 137
-6.71656 -1.50982 12.1343 186 189 193
-0.086161 -0.846545 7.72947 176 172 168
-0.133364 -0.717375 7.48162 156 150 147
-6.93363 -1.28553 12.9969 196 200 204
-6.8103 -1.26477 12.8108 193 198 200
-3.30065 -0.896511 9.89988 204 207 210
-0.0659896 -0.651805 7.94389 173 171 175
-0.0376204 -0.648084 8.02023 172 170 175
0.00222447 -0.644023 7.98192 172 170 174
-1.99204 -0.604973 7.15839 216 202 146
0.239863 -0.604765 7.78467 153 149 148
-0.793142 -0.559656 7.14934 118 112 87
-0.328421 -0.578265 7.53132 135 122 94
-1.97486 -0.563136 7.2164 211 201 150
-0.725 -0.520039 7.08527 102 96 72
-1.98348 -0.530073 7.15987 198 177 134
-0.679922 -0.494157 7.19451 49 67 60
-0.702016 -0.471488 6.96049 34 46 45
-0.414643 -0.450523 7.50927 112 98 56
-0.353248 -0.457881 7.71496 132 109 67
-0.381168 -0.440957 7.80417 116 102 68
-0.313899 -0.443788 8.22659 130 110 66
-0.0511201 -0.396145 7.78355 118 93 86
-2.03939 -0.372655 7.56655 101 101 90
-2.57637 -0.428569 8.99045 210 210 216
-2.59053 -0.394491 9.05109 88 84 72
-2.61625 -0.379568 9.06587 160 154 118
-1.51923 -0.250343 6.96344 168 147 110
-2.63218 -0.343279 8.92035 167 148 119
-2.66037 -0.241991 8.43762 172 139 107
0.203408 -0.17707 8.25674 122 110 94
-2.57328 -0.194224 8.54643 152 152 120
-1.69178 -0.0987853 7.17874 152 147 110
-1.26332 -0.0671351 7.17893 122 117 88
-1.58623 -0.0388787 7.22983 108 112 86
-2.37873 -0.0461703 8.36505 104 102 92
-0.794485 -0.0171741 7.58723 122 104 54
-2.61398 -0.034768 8.05266 160 152 116
-2.14819 -0.00858405 8.53009 136 133 120
-0.958605 0.0080595 7.33813 82 66 36
-2.35449 0.00685097 8.03251 135 132 105
-2.59641 0.0179618 7.98279 144 140 119
-2.20294 -0.000279226 8.23351 113 112 104
-1.53321 0.0344637 7.35209 121 116 72
-2.40051 0.0403519 8.01401 109 101 85
-2.02435 0.0494006 8.1992 168 167 134
-1.95954 0.0532012 8.22101 158 158 132
-1.28458 0.0535506 7.39547 119 106 62
-1.9778 0.0663557 8.07141 168 168 142
-2.3304 0.109912 7.92202 122 128 118
-0.508588 0.147282 7.87604 92 83 64
-2.23748 0.127159 7.98164 151 142 117
-0.508771 0.166628 7.84896 72 50 24
-0.825656 0.194483 7.91615 82 64 26
-0.321765 0.217904 7.53322 120 110 77
-2.30043 0.262579 7.35738 140 142 131
-0.7776 0.329752 7.22565 146 121 82
-1.81926 0.349571 6.74002 211 208 186
-1.65071 0.385178 6.97059 139 140 129
-1.84564 1.21272 5.46077 186 182 181
-0.684866 -1.29212 8.22773 188 183 176
-2.04363 -1.21334 8.17723 181 176 154
-0.332756 -0.46002 7.81986 118 90 52
-2.6238 -0.356186 8.59561 218 212 212
-1.40846 -0.268061 7.01848 154 106 72
-1.32712 -0.255378 7.13899 146 112 80
-0.357445 -0.264899 7.84347 69 64 50
-1.91188 -0.253013 7.34527 92 84 56
-0.590528 -0.160694 7.52873 121 101 41
-2.56108 -0.160444 8.35382 166 152 108
-2.61672 -0.120348 8.15193 164 153 110
-2.24228 -0.0935553 8.55181 130 130 108
-1.2761 0.0162212 7.25573 132 120 66
-2.61311 0.0374238 7.84284 161 147 124
-0.429193 0.267187 7.21185 146 130 92
-2.26442 0.251762 7.32423 133 130 119
-0.855827 -0.648303 6.94237 24 27 44
-0.529044 -0.568217 7.27579 24 24 25
-1.33727 0.446375 7.37327 170 166 156
-4.9514 -2.62522 11.0995 196 198 198
-1.28172 -1.40584 8.75941 198 195 184
-1.33582 -1.40027 8.75366 200 198 184
-1.28774 -1.38107 8.6275 200 198 186
-1.53654 -1.45696 9.13281 200 196 183
-0.732036 -1.26766 8.08803 216 214 200
-0.764661 -1.2771 8.16464 228 226 212
-0.833271 -1.28412 8.27228 230 230 212
-1.66646 -1.2426 8.08337 180 172 143
-6.62177 -1.91113 12.1407 194 196 201
-0.758093 -1.25219 8.14502 237 238 224
-0.73228 -1.25804 8.20384 250 251 242
-6.4376 -1.849 11.7963 196 198 204
-6.76656 -1.91083 12.4282 196 198 202
-0.419553 -1.25175 8.27193 196 192 186
-0.864876 -1.20432 8.38888 248 249 230
-1.11748 -0.983395 7.61051 186 182 157
-1.2253 -0.912023 7.15974 170 166 138
-1.64432 -1.0902 8.58111 167 162 133
-1.64885 -1.06125 8.38495 164 158 129
-1.58799 -0.999073 7.95262 164 159 129
-1.7527 -0.971724 7.8768 158 152 122
-1.87773 -0.979919 7.98969 158 150 120
-2.32738 -0.916301 7.60608 211 207 207
-2.32743 -0.898803 7.61015 210 208 205
-0.237378 -0.899801 7.84716 132 120 110
-0.263841 -0.8402 7.57229 132 121 102
-2.20551 -0.829743 7.553 194 146 132
-2.18877 -0.810988 7.44697 179 80 70
2.15878 -0.93772 8.62506 166 164 166
-2.19722 -0.78998 7.50467 162 72 64
0.162883 -0.777334 7.47137 180 176 177
0.129578 -0.797217 7.7556 148 136 124
-0.219506 -0.771949 7.67378 130 116 90
-6.00354 -1.24782 12.1266 190 190 190
-0.0218065 -0.764706 7.55209 177 170 160
-1.21892 -0.812604 8.05015 162 96 80
-5.929 -1.2092 12.059 194 194 194
-0.335414 -0.732729 7.49859 114 108 83
-1.2838 -0.677116 6.96726 142 143 137
0.0580062 -0.743453 7.71838 176 172 160
0.198377 -0.721942 7.48889 174 164 166
-6.53928 -1.1977 12.2071 204 208 216
-6.46166 -1.19895 12.2064 195 201 206
-6.15117 -1.15727 11.9355 207 212 216
0.212087 -0.716978 7.74195 182 177 178
-5.03211 -1.05826 11.099 208 212 218
-5.23075 -1.11655 11.6561 203 206 212
-5.29062 -1.13937 11.9249 204 208 210
-5.11446 -1.10695 11.6311 203 207 208
-0.164507 -0.712264 7.66045 149 140 134
0.139542 -0.697547 7.55263 146 136 118
-2.26702 -0.680574 7.65938 224 218 184
0.217799 -0.661959 7.43374 146 139 136
-0.350214 -0.634295 7.33011 134 118 74
-0.411309 -0.622187 7.23837 68 61 48
0.225357 -0.644177 7.59894 148 142 141
-1.43895 -0.579583 6.9297 166 134 94
4.42148 -0.93136 11.1363 156 156 157
-0.445592 -0.587569 7.08909 34 41 42
-0.541365 -0.576867 7.14621 47 52 50
-1.14096 -0.545034 6.86608 164 150 106
1.08222 -0.61722 7.68312 174 172 177
-0.810461 -0.560691 7.0063 124 119 90
-1.64348 -0.552424 6.97942 190 185 144
2.3226 -0.872931 10.9577 172 170 175
0.18259 -0.565187 7.4089 160 152 140
-1.9026 -0.542372 7.28241 212 196 142
-0.630374 -0.538978 7.14019 62 69 56
0.191647 -0.56612 7.68406 146 136 126
0.22613 -0.562947 7.83951 202 197 199
-0.707938 -0.515817 7.21421 47 65 62
-0.727812 -0.495596 7.1596 32 40 37
-1.27612 -0.470908 6.87107 159 132 92
-0.470485 -0.492625 7.3399 43 53 49
-0.715785 -0.469074 7.09023 34 45 44
-2.23401 -0.50291 7.71287 168 170 168
-1.60292 -0.45586 7.01591 150 112 70
0.174879 -0.49983 7.74949 151 141 133
-1.40569 -0.450551 6.98835 178 148 114
0.192482 -0.506333 8.05369 186 179 180
-0.136655 -0.497 8.01602 210 199 198
-0.159776 -0.469842 7.97406 136 106 76
-1.65064 -0.413828 7.0944 160 137 110
-1.03845 -0.392889 6.77964 144 116 74
-0.474963 -0.418911 7.35269 53 58 58
0.0911317 -0.474412 8.04817 186 182 174
-1.81299 -0.401072 7.1291 178 188 163
-1.79535 -0.398177 7.16137 183 181 152
-1.68986 -0.398183 7.10733 185 166 126
-0.211926 -0.479556 8.5164 151 133 89
-0.960827 -0.391631 7.02769 132 132 104
-0.459167 -0.395154 7.21496 25 28 27
-0.0130159 -0.452859 8.27574 82 74 72
-0.147275 -0.48985 9.13028 134 122 89
-0.498696 -0.385888 7.36156 48 46 44
-0.301171 -0.409035 7.94696 146 128 86
-0.0378813 -0.439656 8.31893 131 118 96
0.132006 -0.413601 7.84812 150 140 136
-2.00695 -0.376104 7.33318 125 125 115
-1.39983 -0.349667 6.95725 170 149 110
-0.394749 -0.379913 7.71606 128 108 58
-1.55886 -0.32645 6.99886 154 146 116
-0.651813 -0.329946 7.2085 50 48 44
-1.38792 -0.311806 6.93707 159 130 90
-1.63504 -0.311977 7.07703 192 168 126
-0.386727 -0.339767 7.63184 112 97 61
-0.229376 -0.378676 8.28931 99 94 74
-0.57398 -0.314652 7.21517 66 66 39
-0.563245 -0.321685 7.38658 89 82 40
-0.372783 -0.342127 8.18217 107 96 70
-0.34493 -0.355549 8.0905 102 94 68
-1.04436 -0.293429 7.07096 135 132 104
-0.069273 -0.382391 8.69365 162 154 134
-0.826015 -0.282697 7.1306 141 112 42
-0.524782 -0.291134 7.55147 134 113 62
-0.281768 -0.323703 8.22362 56 56 56
-0.545094 -0.269621 7.25455 130 114 63
-0.130042 -0.294098 7.86326 148 136 118
0.184625 -0.317863 8.29816 137 103 94
-0.412068 -0.279408 7.73189 116 100 60
-2.09383 -0.276535 7.64598 145 137 95
-1.64851 -0.257551 7.19074 172 144 106
-1.56917 -0.259879 7.16281 170 145 107
-0.508241 -0.258254 7.39729 125 103 56
-0.306781 -0.280843 8.01719 96 84 62
-2.50373 -0.282073 8.45534 176 158 113
-1.53975 -0.239165 7.18216 176 144 101
-0.548061 -0.242819 7.39788 117 108 65
-0.444181 -0.244973 7.81959 120 102 53
-0.405865 -0.246096 7.64389 122 102 52
-1.62062 -0.226987 7.13881 165 127 82
-0.265262 -0.273499 8.31126 64 61 56
-0.615325 -0.230797 7.37077 124 90 42
-1.51327 -0.218107 7.12741 151 118 74
-0.940079 -0.198716 7.14231 135 104 57
-0.303698 -0.27038 8.64147 84 75 57
-0.99204 -0.207548 7.21386 148 130 80
0.162507 -0.245566 8.53696 142 128 101
0.0649014 -0.236203 8.45646 137 122 94
-1.00335 -0.195186 7.18393 150 138 88
-0.905215 -0.177779 7.16895 144 130 83
0.0216506 -0.221468 8.52064 144 128 97
-0.0748138 -0.206128 8.50864 144 126 90
0.137584 -0.190083 8.02989 132 124 100
-1.36168 -0.171483 7.12418 138 102 60
-1.98965 -0.170455 7.67625 124 114 80
-1.30354 -0.160092 7.08813 154 136 88
-0.0607216 -0.186508 8.47885 142 124 90
-1.41984 -0.154403 7.10404 140 112 77
-0.749279 -0.16187 7.25606 63 51 33
-0.829064 -0.154558 7.25407 102 107 94
-0.0804363 -0.17176 8.50898 138 124 93
0.249257 -0.182509 8.34034 117 106 98
1.37202 -0.141177 7.38083 185 179 181
-0.855182 -0.135811 7.2699 86 86 59
-0.969172 -0.132888 7.15714 132 124 86
-0.11946 -0.148513 8.31885 132 114 86
-2.61709 -0.144789 8.0858 158 148 114
-1.51247 -0.128144 7.18731 148 134 92
-1.41975 -0.127157 7.21022 114 128 116
-0.61572 -0.155105 7.67029 134 114 54
-2.58977 -0.146693 8.51853 171 152 111
0.125496 -0.139144 8.04601 149 134 107
-0.792476 -0.117689 7.39062 126 114 62
-1.26065 -0.0894706 7.14466 80 74 46
-0.945866 -0.0902774 7.14201 84 80 50
-2.60737 -0.0919377 7.86444 163 128 102
-0.37731 -0.0960161 8.47892 136 118 82
0.183632 -0.0953535 7.92503 158 130 116
-1.04561 -0.0744167 7.28763 131 124 80
-0.12853 -0.0908117 8.44025 138 121 90
-2.53164 -0.0745914 8.04745 166 154 108
-1.06501 -0.0706605 7.22921 54 54 24
0.183433 -0.0873909 8.17271 152 126 108
-0.849738 -0.0644232 7.41946 126 117 62
-1.68812 -0.0638065 7.34602 142 136 96
-0.647359 -0.066844 7.58304 120 103 40
-0.479551 -0.0747083 8.04815 124 109 74
-0.0838906 -0.0636546 8.19708 130 116 94
-2.46278 -0.0403635 8.22237 136 133 110
-1.95307 -0.0407722 7.91048 114 112 86
-1.41149 -0.0382647 7.23223 144 126 60
-0.653724 -0.0420542 8.25816 109 91 48
-0.539476 -0.034325 8.02223 116 100 73
-2.4214 -0.030118 8.30911 110 95 71
-0.158498 -0.0301611 8.29811 140 126 99
0.145631 -0.0276744 7.97151 132 120 106
-2.68475 -0.0260699 8.02977 149 144 118
-2.47635 -0.023975 8.15876 138 134 117
-2.25567 -0.0197725 8.28557 122 122 111
-1.43273 -0.0178716 7.25117 138 110 59
-0.801262 -0.0210849 7.5363 64 48 18
-0.114538 -0.0212939 8.34233 140 126 100
-0.818898 -0.0118951 7.37808 40 20 0
-1.24847 -0.0052611 7.30727 108 112 76
-0.456909 -0.00445259 8.21777 124 103 72
-1.38441 -0.00318321 7.43013 143 133 76
-0.760544 -0.00159439 7.59641 128 110 44
-0.649979 0.00422571 8.18188 116 100 72
-2.3387 0.00503419 8.24139 164 162 141
-2.09383 0.0037067 8.22161 116 118 106
-0.729261 0.0137216 7.57477 124 98 38
-0.0897012 0.00737068 7.98565 146 128 102
-0.747275 0.0172908 7.84721 120 96 36
-2.20952 0.0272857 8.16128 122 118 92
-1.36453 0.0184069 7.29549 92 84 46
-1.29897 0.0169794 7.34156 134 125 76
-1.98991 0.0313627 8.09603 169 170 144
-1.89064 0.0269549 7.98393 118 117 95
-1.06141 0.021245 7.33613 46 31 6
-2.61005 0.0295819 7.97235 155 150 124
-0.856229 0.031131 7.47466 141 124 49
-2.00857 0.034075 8.2676 146 145 122
-2.23053 0.0461874 8.20385 184 179 149
-0.973588 0.0414659 7.40933 142 124 48
-0.453491 0.0433859 8.40663 127 115 83
-2.66099 0.0510958 8.20708 136 132 116
-2.18791 0.0452183 8.26141 162 160 138
-2.68127 0.0452628 7.79988 220 221 215
-2.29867 0.0577131 8.08732 112 106 92
-1.16517 0.0516079 7.17419 132 123 68
-2.32865 0.0629033 7.83852 151 148 128
-2.34625 0.0752431 8.17728 160 160 145
-2.23917 0.0710422 8.29339 98 104 96
-0.756887 0.0712878 8.09102 77 62 31
-0.436579 0.0748841 8.18734 128 113 78
-2.42506 0.0819917 8.07019 126 124 102
-2.17536 0.0870267 8.15655 120 123 114
-2.07823 0.0854677 8.2502 141 142 120
-1.40906 0.0818712 7.68376 128 107 48
-0.918085 0.0871024 7.55112 96 76 34
-0.119668 0.104639 7.96829 120 104 86
-1.77451 0.0939231 7.92781 102 98 84
-2.12056 0.113806 8.00687 150 148 128
-0.349605 0.108239 8.02336 96 84 74
-2.33473 0.110312 7.75937 84 84 86
-2.23228 0.114693 8.10772 148 153 138
-0.809527 0.115861 8.10442 62 51 20
-1.76581 0.121227 7.86583 141 141 115
-1.49043 0.113018 7.6879 79 68 26
-2.03297 0.12835 8.08146 169 168 143
-1.91923 0.151079 8.06649 156 149 131
-0.475265 0.148873 8.03211 61 48 27
-0.856848 0.151966 7.9036 68 56 20
-0.543798 0.153671 7.94458 55 40 14
-2.03143 0.151566 7.82239 158 154 122
-0.557069 0.156025 7.78852 59 48 19
0.0204759 0.149151 7.42181 130 116 105
-2.06173 0.178989 8.15018 134 136 126
-0.854559 0.168533 7.89853 89 72 28
-2.21957 0.178268 7.89936 150 148 135
-0.913902 0.175222 7.72239 70 55 19
-0.576232 0.172962 7.71249 68 51 20
-1.9911 0.179569 7.99038 138 138 130
-1.82058 0.173815 7.83415 108 109 102
-0.557294 0.179779 7.79369 40 24 2
-0.432709 0.183424 7.81286 129 114 72
-2.13143 0.188838 7.89883 158 150 128
-2.22839 0.195929 7.87759 133 130 115
-2.21553 0.195952 7.88799 133 128 112
-0.560983 0.194596 7.65524 118 102 48
-0.10051 0.195027 7.43701 104 100 92
-2.23682 0.203878 7.77148 128 128 120
-1.6955 0.208689 7.77264 92 92 70
-2.43569 0.215369 7.48149 172 153 134
-1.38156 0.208899 7.57564 108 105 74
-2.23371 0.22605 7.89436 168 164 140
-1.34915 0.21927 7.69527 122 118 89
-1.31192 0.218339 7.63979 122 120 100
-1.2982 0.217976 7.64311 132 130 99
-0.0765791 0.203207 7.90097 119 108 98
-0.627219 0.219607 7.59121 130 110 50
-2.40293 0.220672 7.38528 222 210 192
-1.13638 0.224294 7.54464 102 101 64
-2.38561 0.227858 7.41186 166 146 134
-1.32992 0.23749 7.73951 76 78 58
-2.14077 0.240285 7.69331 139 134 120
-1.28168 0.244559 7.62866 115 114 90
-0.608464 0.242216 7.66718 88 69 24
-2.28252 0.255911 7.66426 124 125 111
-0.232057 0.228148 7.06365 153 86 69
-2.3061 0.25806 7.51945 130 124 106
-1.2832 0.25837 7.65069 82 76 52
-2.33688 0.248182 7.33184 210 212 194
-2.32246 0.257872 7.48692 134 130 120
0.886855 0.282111 7.77288 170 160 160
-1.35734 0.277152 7.63293 74 74 54
-0.667882 0.26749 7.47978 126 112 72
-1.28203 0.279213 7.53573 113 110 84
-1.82124 0.304648 7.78146 172 169 130
-1.09323 0.30235 7.60608 152 144 93
-0.417115 0.270273 6.92075 134 119 77
-0.585324 0.294496 7.28659 144 129 74
-1.19289 0.307237 7.48996 148 147 104
-2.01384 0.321715 7.63062 132 132 122
-0.709151 0.30436 7.3702 148 134 77
-0.638944 0.30556 7.34522 140 125 62
-1.176 0.318906 7.50032 112 100 62
-1.92981 0.346608 7.55753 154 150 130
-1.0464 0.330847 7.39751 160 148 100
-0.664797 0.326406 7.22896 131 122 88
-1.06537 0.341181 7.44299 160 147 98
-0.825656 0.317092 6.92266 162 148 94
-0.906947 0.332139 7.1608 158 148 96
-0.893069 0.332074 7.16466 158 146 94
-1.16248 0.348554 7.51841 166 156 108
-1.01361 0.336395 7.07262 168 158 108
-1.10086 0.354537 7.25055 154 140 88
-1.09145 0.352282 7.14475 166 156 106
-1.05367 0.371675 7.41186 160 140 90
-1.93024 0.369334 7.21084 220 208 192
-1.13932 0.367104 7.05673 144 124 80
-1.12995 0.364121 7.09871 160 150 104
-1.65816 0.381156 6.98074 83 82 82
-1.63229 0.382558 6.94544 136 136 124
-1.52804 0.378993 6.84101 196 183 149
-1.10553 0.38403 6.82232 178 144 117
-1.51788 0.407453 6.99216 196 160 150
-1.27904 0.484098 7.3326 120 115 108
-3.14152 0.518636 7.53332 212 212 212
-0.282795 0.884301 6.13182 193 184 187
1.16191 0.948062 5.98037 186 182 184
-0.314593 1.7533 6.69859 194 188 190
-0.602322 -0.468051 7.20134 109 84 43
-0.76723 0.265802 7.69655 130 112 54
-0.0726827 0.506309 7.90408 110 95 81
-5.50667 -1.5938 11.8065 188 190 193
-1.61199 0.450706 7.59509 177 169 159
-6.08824 -1.43794 11.9749 190 190 195
-5.90611 -1.37158 11.724 187 188 193
-6.10018 -2.16681 11.5619 186 188 192
1.36495 -0.638065 8.24995 162 160 164
1.35831 -0.609852 7.89326 163 162 166
-0.910174 0.0561684 7.485 134 108 27
-4.18753 0.397949 8.75124 200 200 201
-4.23305 -2.03496 10.8701 193 194 196
-0.614925 -1.24179 8.24825 218 214 199
0.997717 -0.615943 7.99902 172 170 172
-0.811512 -0.464253 7.02042 138 126 86
0.154914 -0.437143 8.07538 142 136 130
-0.342999 -0.32314 7.91035 92 88 68
-1.91799 -0.272081 7.3432 107 104 80
-6.56592 -2.19514 12.0287 189 192 198
-2.03467 -1.25196 8.33283 182 180 158
-0.144065 -0.793449 7.66074 164 158 142
-0.169393 -0.778283 7.65621 146 138 118
-0.2547 -0.780011 7.90351 106 90 56
-4.16409 -1.03151 11.0412 188 190 192
0.706006 -0.666068 8.389 164 162 166
3.64971 -0.761941 9.8491 154 153 156
3.30332 -0.638807 8.53131 152 152 156
-0.39889 -0.473324 7.85361 125 108 65
-1.39221 -0.398307 6.89568 172 143 106
-0.243748 -0.488411 8.84451 128 118 80
-0.124649 -0.476766 8.56151 134 121 94
-0.0818996 -0.475634 8.61209 74 68 58
-2.51356 -0.33966 8.33872 226 186 179
-2.21826 -0.325617 7.94764 132 130 95
-1.93497 -0.289996 7.32893 114 109 95
-0.22426 -0.314579 8.48568 64 64 61
-2.56463 -0.312452 8.56611 170 140 108
-2.49535 -0.310955 8.66377 159 148 98
-0.339505 -0.310804 8.94952 88 82 67
0.0684672 -0.294675 8.56485 129 118 90
-0.313293 -0.276064 8.51771 62 58 52
-1.06656 -0.219506 7.03533 122 121 86
-0.232269 -0.259504 8.08075 126 118 102
-2.2256 -0.216234 8.05168 142 144 116
-1.49443 -0.180922 7.13822 154 120 72
-2.40745 -0.154151 8.5084 92 92 80
-0.139468 -0.155217 8.54137 126 104 74
-2.04545 -0.129673 7.9254 103 100 74
-2.46639 -0.110748 8.3544 104 101 90
-1.90205 -0.101325 7.57917 120 119 96
-1.91374 -0.105406 7.75329 86 81 63
-2.60807 -0.0892586 8.09953 162 153 111
-2.42428 -0.0865221 8.10707 100 104 96
-2.46227 -0.0886922 8.32243 76 76 60
-2.10465 -0.0866566 8.00883 96 93 80
-1.92293 -0.0820848 7.65461 99 94 66
-1.1677 -0.0774337 7.17162 131 126 90
-1.87062 -0.0728152 7.7204 135 128 92
-2.49035 -0.0599544 8.44865 117 116 94
-0.655671 -0.074574 8.22231 112 94 35
-2.26546 -0.0420614 8.31694 72 70 66
-0.814037 -0.00728125 7.6311 125 110 55
-1.66922 -0.00704097 7.45391 130 120 75
-0.112763 0.00423583 8.13003 141 124 97
0.124406 0.0176833 7.83664 132 88 73
-0.282814 0.0176863 8.20169 132 112 81
-1.2054 0.0304649 7.49353 129 119 74
-1.33049 0.0427556 7.38718 37 22 7
-1.56819 0.0521051 7.44702 116 102 52
-0.888485 0.0764084 7.68802 92 70 18
-2.21759 0.0943551 7.94633 138 137 118
-1.63354 0.110976 7.88043 146 144 101
-2.365 0.108987 8.0271 140 143 128
0.0716773 0.117295 8.09708 130 118 104
0.0940939 0.112151 7.8977 116 102 94
-1.42875 0.126217 7.65365 80 70 34
-0.332074 0.215091 7.30771 136 128 104
-1.70365 0.246799 7.65829 129 128 94
-1.65896 0.240437 7.57925 168 168 136
-0.386037 0.227079 7.43393 136 126 106
-1.08894 0.377579 6.88388 162 148 103
-0.134434 1.42418 7.32721 187 178 181
-3.71562 -1.72448 8.32283 191 192 194
-6.81132 -2.19877 12.2794 186 188 190
-1.39372 -1.41127 8.79467 193 190 178
-1.36121 -1.40384 8.75167 194 192 178
-1.49858 -1.41558 8.85788 192 189 176
-1.74998 -1.24071 8.07258 186 179 157
-1.64715 -1.20193 7.8639 176 166 140
-1.99756 -1.36116 8.84587 182 178 156
-0.934796 -1.32445 8.63375 214 212 194
-1.98573 -1.29373 8.49869 184 180 158
-1.99631 -1.31713 8.63932 178 173 149
-1.82029 -1.26512 8.32292 175 164 134
-1.79472 -1.25965 8.28943 202 188 158
-1.02855 -1.27945 8.56552 221 219 200
-1.06116 -1.32316 8.9673 245 246 230
-1.40954 -0.835153 6.28999 148 142 110
-1.68846 -1.07435 8.50421 158 154 126
-2.23632 -0.85468 7.425 130 130 127
0.0343095 -0.836486 7.5964 176 170 164
-2.26761 -0.817032 7.6255 219 184 156
-0.0802209 -0.792215 7.4571 195 190 176
-2.28485 -0.810818 7.57281 201 202 194
-2.6683 -0.902852 8.80765 210 210 192
-0.317213 -0.739474 7.47246 94 88 67
-0.11042 -0.719473 7.36957 159 150 141
-0.28952 -0.701713 7.26895 105 96 70
-4.87581 -1.12228 11.8338 186 190 192
-4.84957 -1.12997 11.9037 188 191 196
-4.75964 -1.11632 11.7708 188 192 195
-2.12051 -0.658821 7.18204 222 210 182
-3.85247 -1.01077 10.9076 188 189 194
-3.01391 -0.774023 8.72442 190 191 195
-3.96641 -1.06496 11.4646 190 193 196
-4.06779 -1.10396 11.8418 191 195 198
-4.01102 -1.09508 11.7536 198 200 204
-2.92818 -0.777476 8.79451 200 202 206
-3.81999 -1.05849 11.4706 204 206 210
0.190414 -0.677514 7.69004 126 112 98
-0.0862527 -0.827701 9.86195 172 170 175
-0.726031 -0.59248 7.11964 120 110 68
-0.0381254 -0.839748 10.0566 178 176 182
-0.00218429 -0.857414 10.2388 174 172 178
0.0248095 -0.841959 10.0745 173 172 176
0.189377 -0.832817 9.96483 159 150 139
0.401065 -0.86308 10.3781 173 171 176
0.962146 -0.641902 8.21751 168 167 171
1.37962 -0.707868 8.97884 168 167 170
4.14086 -0.845596 10.6441 155 154 157
4.16227 -0.845746 10.6438 152 151 154
4.14241 -0.825565 10.6666 150 149 152
4.31035 -0.858394 11.0339 148 147 150
4.29175 -0.852793 10.9267 145 145 148
4.31373 -0.852952 10.9263 148 147 150
4.15931 -0.799637 10.4036 151 150 152
-2.02816 -0.548101 7.37785 208 192 148
-2.00306 -0.49174 7.14798 178 180 152
-2.1627 -0.493738 7.45711 186 189 186
-0.182931 -0.53404 8.71923 160 138 118
-1.74349 -0.40089 6.96748 176 184 155
-0.355549 -0.341165 7.32834 112 88 38
-1.76508 -0.279922 6.59281 90 88 80
-1.18887 -0.302469 7.11091 154 144 101
-2.61036 -0.372334 8.79546 179 143 124
-2.47031 -0.355391 8.53473 144 134 104
-1.83047 -0.291537 7.25638 194 183 133
-2.66092 -0.361634 8.94717 138 80 61
-1.78786 -0.267105 7.0701 188 181 136
-1.21334 -0.265148 7.25818 155 134 92
-2.66923 -0.310324 8.57471 210 211 214
-2.49136 -0.295822 8.41826 172 157 113
0.0907394 -0.304656 8.69759 128 116 84
-2.7099 -0.298414 8.70857 74 73 82
-2.43609 -0.277851 8.48541 170 155 104
0.0361328 -0.249922 7.81783 136 120 88
0.129207 -0.269845 8.43789 136 121 92
-2.61628 -0.22789 8.15041 194 153 138
-2.35598 -0.22842 8.43113 148 144 103
-1.52307 -0.174872 7.17785 160 130 77
-2.70107 -0.221346 8.83343 167 157 112
-0.868519 -0.173852 7.1294 123 118 82
-0.0161186 -0.20573 8.31228 128 104 76
-2.13017 -0.188868 7.98953 117 116 74
-2.57555 -0.181383 7.8498 221 220 218
-2.35061 -0.142572 8.05182 148 126 94
-2.10338 -0.143526 8.14207 98 94 72
-2.74387 -0.140782 8.1756 229 207 202
-0.96807 -0.119038 7.23908 70 66 42
-2.40398 -0.0975605 8.26185 70 68 62
-2.47926 -0.101162 8.62413 160 157 126
0.213029 -0.072809 7.86983 154 132 116
-2.33109 -0.0692432 8.26593 158 156 129
-1.98489 -0.057667 7.86881 79 78 64
-1.59587 -0.0540872 7.05837 146 140 93
-2.60542 -0.0472809 8.13151 148 143 111
-2.20276 -0.0346806 8.22077 144 142 123
-2.23486 -0.0183995 8.15112 102 104 94
-1.46825 -0.0157193 6.82939 122 122 84
-0.73877 0.0114972 8.11918 101 79 26
-0.755949 0.0243785 7.7828 75 58 16
-2.70679 0.0196718 7.9286 190 183 160
-2.37611 0.0411662 8.13069 80 80 60
0.13338 0.0417866 7.3895 134 110 94
0.104426 0.0654121 7.49319 135 122 97
0.0833934 0.0838993 7.51694 123 112 100
-1.65231 0.0903952 7.59912 128 128 88
0.110834 0.093073 7.91336 122 110 98
0.0657005 0.0921797 7.45111 112 104 92
-2.02055 0.107772 7.61868 130 126 112
-2.48112 0.113987 7.38309 148 108 103
-0.334064 0.131622 7.96464 106 93 76
0.00278973 0.124217 7.50865 106 64 49
-0.419512 0.129171 7.47006 99 90 73
-0.297002 0.13354 7.75447 134 121 98
-1.08633 0.139708 7.48302 127 113 55
-2.5332 0.146115 7.52257 215 212 198
-0.200991 0.149369 7.44844 116 106 86
-0.0290426 0.148576 7.68959 116 72 64
-2.46677 0.158319 7.38168 212 214 193
-0.628995 0.173467 7.84718 41 20 8
-0.514433 0.175608 7.96003 78 54 14
-0.283293 0.186887 7.3875 130 114 91
-0.486363 0.220229 7.9302 123 106 78
-1.68652 0.224825 7.61232 120 123 96
-0.436234 0.227556 7.56702 133 120 100
-2.23205 0.22722 7.25052 142 140 116
-0.481752 0.229732 7.32347 94 82 46
-0.492474 0.239985 7.63845 62 50 18
-1.79207 0.271631 8.42447 150 144 110
-1.81016 0.272528 7.79391 123 112 79
-1.03189 0.27046 7.48169 140 127 77
-2.26592 0.27559 7.21362 210 212 199
-0.77746 0.307063 7.39207 120 118 84
-0.750434 0.305506 7.34265 126 119 74
-1.91325 0.339869 6.94989 198 200 186
-1.81634 0.356156 6.88832 219 202 191
-1.63979 0.371007 6.82359 89 86 81
-1.85832 0.39788 7.21635 196 194 180
-1.33004 1.24532 5.46739 193 189 188
-0.7567 -1.21777 8.12085 237 239 226
-1.75062 -0.975466 7.97517 156 150 121
2.96572 -0.187219 7.47707 172 170 171
-2.73249 -0.0685254 8.00419 213 212 208
-2.54673 0.104409 7.71897 121 116 112
-7.44104 -2.26162 11.8957 142 138 114
-6.91937 -1.77042 12.0021 176 176 180
-7.53239 -1.58456 12.1816 123 116 102
-7.539 -1.36349 12.2514 123 117 93
-7.46678 -1.28232 12.3399 108 86 60
-7.23804 -1.22839 12.5164 184 184 189
-0.829833 0.241654 7.70002 118 99 46
-7.10382 -1.48343 12.1985 165 164 169
-7.4217 -1.4451 12.1988 105 88 50
-6.91708 -1.77749 12.1572 172 171 174
-6.24424 -1.62986 11.9601 180 180 185
-7.76793 -1.44168 12.3114 104 76 54
-7.44377 -1.30099 12.2854 104 84 52
1.21163 -1.52847 8.232 145 142 143
-6.89478 -1.96987 11.9266 177 177 182
-7.56846 -1.61509 12.2409 123 114 99
-7.69266 -1.73647 12.1957 122 118 101
-7.7247 -1.71086 12.2416 105 100 86
-7.71232 -1.67963 12.2244 128 122 108
-7.73397 -1.65849 12.261 120 113 100
-7.50816 -1.15572 12.0803 92 88 76
-5.56206 -2.87353 11.4328 188 190 192
-6.80676 -2.11111 11.7164 186 188 192
-1.56939 -0.24245 7.08571 162 130 92
-0.346411 0.234086 8.07263 124 110 78
-1.93972 1.17144 7.20747 192 188 185
-0.878435 -1.25348 8.27138 206 208 190
-0.56407 -1.06548 8.16603 219 218 198
-7.5314 -1.28764 12.5979 40 34 31
-7.31925 -1.2438 12.367 48 40 45
-0.501956 -0.372287 7.52177 50 53 42
-0.65834 -0.202234 7.31602 132 118 69
-2.59549 -0.00318589 8.07039 126 120 94
-7.47369 -2.32659 12.7645 184 186 190
-7.36227 -2.14178 11.9395 46 34 42
-7.38377 -2.03274 11.9206 88 70 50
-6.43108 -1.89059 11.8359 190 192 196
-7.26162 -1.8616 11.9595 72 67 78
-1.46647 -1.3293 8.41799 192 188 172
-0.273016 -1.15391 7.93521 178 175 172
-7.37094 -1.681 12.2379 44 34 46
-6.3398 -1.66727 12.0588 188 190 194
-0.818184 -1.13886 8.21623 215 214 197
-7.34538 -1.51076 11.9048 123 114 100
-2.25786 -0.9999 7.66978 190 186 168
-7.37196 -1.50557 12.3702 110 97 104
-7.41833 -1.38569 11.8604 104 95 76
-7.21245 -1.22805 12.1505 26 18 25
-7.73063 -1.213 12.3261 78 65 54
-0.092467 -0.859917 7.8007 180 175 172
-7.00273 -1.24259 12.5538 194 198 202
-6.36514 -1.1367 11.6194 198 200 204
-2.05175 -0.71867 7.31508 76 82 97
-0.307222 -0.694864 7.46716 121 110 77
-0.951766 -0.568627 6.71912 144 129 91
0.422155 -0.633532 7.89851 170 168 172
0.724067 -0.669517 8.48272 164 162 166
2.51389 -0.910232 11.4183 168 166 171
2.31145 -0.794104 10.0906 164 163 169
2.12522 -0.523089 7.04299 160 158 164
-0.70171 -0.488323 7.10055 46 58 57
-1.48995 -0.371454 6.99636 160 136 92
-0.83764 -0.331782 6.99785 133 104 56
-2.36895 -0.29816 8.23483 156 149 110
-1.86894 -0.265108 7.3323 170 150 112
-0.379563 -0.299493 8.27603 54 51 48
-0.200987 -0.315351 8.53709 90 83 73
0.122572 -0.325352 8.46722 141 126 92
-2.70439 -0.16606 8.29271 76 73 70
-1.44228 -0.109945 7.10999 132 131 98
-2.16307 -0.101246 7.97935 144 144 133
-0.827249 -0.114423 7.30163 129 119 70
-2.64763 -0.0548179 8.01897 152 146 112
-1.03897 -0.00289653 7.32257 116 104 58
-2.25033 0.0979948 8.26433 102 102 90
-0.531487 0.0989399 8.11731 72 68 40
-0.00514433 0.102473 7.83715 154 134 104
-0.44425 0.14191 8.13241 83 72 60
-2.39776 0.226881 7.64633 138 132 123
-0.710054 0.288415 7.63451 120 101 56
-1.86897 0.354947 7.41899 162 158 132
-8.66818 -2.14709 14.0744 110 102 114
-0.707176 -1.28092 8.18438 208 206 194
-1.7214 -1.23634 8.10792 173 168 144
-7.65666 -1.80065 12.6377 58 52 67
-0.594668 -1.19245 8.3755 222 222 202
-0.56841 -1.13291 8.32461 216 215 196
-7.64782 -1.41314 12.2428 130 123 102
-0.240645 -0.852435 7.49228 88 74 67
-2.06911 -0.753757 7.065 220 208 192
-6.75465 -1.11984 11.0892 72 68 58
-0.0484076 -0.840435 7.64497 182 178 174
-7.23457 -1.14278 11.8238 77 72 76
-6.93206 -1.10704 11.4298 67 62 68
-6.68598 -1.18915 12.1075 196 199 204
-4.94362 -1.04566 10.9962 202 206 211
-5.40291 -1.1389 11.934 206 210 216
-0.383039 -0.7259 7.52371 128 112 72
-0.802193 -0.567236 7.12268 118 116 93
0.563897 -0.671756 8.37188 174 173 178
0.578581 -0.681004 8.54774 175 172 178
0.645377 -0.688177 8.60601 164 162 168
-0.771274 -0.528073 7.26033 116 112 74
-0.379918 -0.533431 7.40759 118 90 56
-1.61271 -0.466156 6.96883 188 180 136
-1.82507 -0.403466 7.3114 178 158 120
-0.142043 -0.457519 8.16188 141 126 86
-0.301242 -0.424295 8.17909 150 133 86
-2.5094 -0.314743 8.31244 214 211 190
-2.57939 -0.335637 8.59425 176 124 103
-0.398616 -0.348978 7.80237 102 86 52
-2.50159 -0.288307 8.1667 206 206 202
-2.59648 -0.283053 8.49938 136 126 105
-2.0639 -0.24528 7.7482 97 95 69
-2.53967 -0.253199 8.71086 165 150 104
-0.348699 -0.273069 8.15936 100 84 58
0.0839318 -0.297016 8.69062 129 118 92
0.236183 -0.268966 8.47138 152 142 138
-0.0484165 -0.230109 7.72207 120 110 82
-2.34455 -0.157486 8.22049 121 111 84
-0.897016 -0.174362 7.26163 125 118 79
-0.928308 -0.148105 7.22099 132 124 80
-1.63206 -0.0551299 7.36626 116 118 85
-1.60918 -0.0153694 7.42646 138 132 84
-0.759907 -0.0164919 7.1959 55 36 8
-2.34133 0.0334413 7.91894 116 109 94
-0.995019 -0.0148652 7.46263 102 95 49
-1.02003 -0.00204266 7.39371 128 117 68
0.166348 -0.0392001 7.97852 93 84 78
-2.41033 0.0464017 7.58662 127 126 104
-1.21148 0.013071 7.17889 90 82 46
-1.03314 0.004637 7.62229 90 84 42
-1.25734 0.0515897 7.28982 95 82 36
-0.712109 0.0292355 8.18126 85 74 47
0.120476 0.0118966 7.83172 138 96 82
-1.14981 0.0699457 7.31947 140 122 60
-2.08538 0.107268 8.28611 120 118 104
-1.15704 0.0729656 7.54766 139 128 61
-2.42554 0.126412 8.13796 124 124 108
-1.04878 0.0948756 7.57987 138 121 62
0.142966 0.0595102 7.91306 120 106 98
-1.02901 0.101038 7.7265 50 38 0
0.119436 0.0648363 7.66011 136 118 104
-0.805856 0.108337 8.17011 58 45 18
-2.19766 0.187711 8.00409 122 118 100
-2.15753 0.214621 7.88755 122 118 98
-1.38386 0.205038 7.8016 132 132 104
-0.593427 0.27563 8.2571 65 50 30
-0.726455 0.263505 7.79805 90 72 30
-2.0511 0.286199 6.89943 214 206 194
0.0819249 1.64518 7.00837 186 177 181
-6.28658 -1.82303 11.4175 170 170 174
-7.53538 -1.89219 12.002 116 104 92
-7.31048 -1.76697 12.0619 59 45 57
-2.35286 -1.01066 7.82963 178 174 160
-2.35289 -1.00583 7.84297 158 153 142
-7.39571 -1.59734 12.065 94 70 48
-7.4069 -1.58243 12.1021 98 78 53
-2.34015 -0.940965 7.79152 182 146 132
-7.40612 -1.53498 12.1078 90 74 48
-7.50083 -1.50803 12.1137 122 113 102
-7.58502 -1.40268 12.0619 114 101 90
-7.41469 -1.40948 12.176 94 76 42
-7.54113 -1.20564 12.1586 38 29 28
-7.648 -1.19057 12.1887 60 41 38
-7.59241 -1.18401 12.2107 22 12 15
-5.39331 -1.12524 11.7685 178 180 184
-3.25868 -0.825134 9.3514 180 180 183
-1.37778 -0.533089 6.89203 154 140 98
-2.04758 -0.547607 7.27868 182 182 146
-1.84813 -0.507743 7.02827 176 148 94
-2.25046 -0.561255 7.72244 155 150 138
-2.08394 -0.499193 7.38974 183 181 148
-1.9494 -0.488676 7.23572 189 178 137
-1.84974 -0.444087 7.1055 183 170 129
-1.74676 -0.369298 7.06736 163 134 96
-2.64353 -0.516921 9.2771 190 190 194
-0.996587 -0.292306 7.06657 128 116 79
-1.40736 -0.271667 7.0169 136 92 62
0.120153 -0.256008 8.29397 116 99 72
-1.48786 -0.172065 7.17326 135 99 58
