ply
format ascii 1.0
element vertex 1268
property float x
property float y
property float z
property uchar red
property uchar green
property uchar blue
end_header
-0.80826 -0.460496 11.2425 137 128 91
-0.673225 -0.42249 10.9417 79 78 64
-0.796675 -0.449529 11.2179 66 58 35
-0.791419 -0.445736 11.2148 150 142 111
-0.683244 -0.41714 10.9651 103 93 66
-0.652716 -0.411082 10.9289 60 46 22
-0.423554 -0.415578 10.9287 70 55 42
-0.417338 -0.414211 10.9385 71 66 46
-0.790846 -0.440909 11.2113 64 60 44
-0.755996 -0.438937 11.1795 76 78 60
-0.774186 -0.439336 11.2074 136 138 122
-0.642564 -0.407295 10.9275 110 93 23
-0.391519 -0.397116 10.822 66 48 12
-0.793683 -0.429663 11.1895 110 108 89
-0.524279 -0.400757 10.8992 28 16 8
-0.772686 -0.428641 11.1987 148 145 124
-0.667354 -0.400569 10.9523 127 124 98
-0.407278 -0.401812 10.9717 38 19 6
-0.214138 -0.420793 11.1192 71 66 60
-0.661873 -0.397043 10.9882 66 58 24
-0.739195 -0.412931 11.1827 140 138 126
-0.797541 -0.402557 11.127 66 66 50
-0.670022 -0.39202 11.0084 99 92 56
-0.816809 -0.398632 11.12 130 126 112
-0.210276 -0.407084 11.0999 106 54 49
-0.800513 -0.399294 11.1372 134 128 106
-0.823382 -0.391804 11.0795 84 82 64
-0.799914 -0.394691 11.1136 90 86 68
-0.450094 -0.383743 10.9565 37 22 4
-0.814526 -0.387964 11.0788 72 68 58
-0.782308 -0.392619 11.1237 127 125 111
-0.726116 -0.397845 11.1527 160 159 136
-0.800249 -0.391588 11.1215 145 135 108
-0.787754 -0.389002 11.1117 133 122 100
-0.675107 -0.386848 11.0765 166 154 128
-0.788839 -0.389277 11.1275 144 138 120
-0.837777 -0.374728 11.0017 152 92 86
-0.629751 -0.37514 10.9788 36 31 18
-0.518644 -0.373752 10.9376 26 14 1
-0.224994 -0.389999 11.0474 100 92 81
-0.828657 -0.375423 11.0167 118 108 91
-0.783938 -0.382382 11.0968 94 88 74
-0.471355 -0.374849 10.9503 37 20 2
-0.469513 -0.376288 10.9655 118 103 58
-0.777882 -0.381134 11.0969 74 72 58
-0.735288 -0.3848 11.1244 160 158 138
-0.221104 -0.386609 11.0344 56 44 46
-0.798575 -0.378169 11.0767 136 128 106
-0.589279 -0.370323 10.9546 109 86 45
-0.524775 -0.369841 10.9445 26 10 6
-0.228004 -0.385687 11.0402 80 66 53
-0.225882 -0.392077 11.0986 52 42 40
-0.832726 -0.368097 11.0005 142 126 102
-0.666591 -0.372987 11.0476 130 132 120
-0.752351 -0.375574 11.1076 88 87 73
-0.613336 -0.368869 11.0047 86 77 36
-0.663347 -0.375358 11.1142 162 160 132
-0.462759 -0.376893 11.077 79 58 10
-0.236964 -0.373168 11.0013 148 100 81
-0.819187 -0.35807 10.9711 80 78 79
-0.753735 -0.369324 11.0859 154 152 128
-0.681929 -0.370955 11.0905 117 114 108
-0.656324 -0.372983 11.1028 116 116 88
-0.692186 -0.370376 11.1068 88 86 75
-0.653822 -0.371512 11.1061 154 158 132
-0.232687 -0.371262 11.0062 101 44 33
-0.486703 -0.362426 10.9853 51 37 10
-0.718447 -0.364774 11.0853 144 144 127
-0.237283 -0.365699 10.9951 91 32 26
-0.680109 -0.363386 11.0833 61 57 46
-0.243438 -0.36439 10.9957 149 132 101
-0.651373 -0.363246 11.0882 131 131 105
-0.49158 -0.358559 10.9956 46 33 12
-0.606698 -0.346073 10.907 86 85 57
-0.712527 -0.356987 11.0707 96 92 75
-0.248581 -0.36137 11.0252 37 26 23
-0.623519 -0.353562 11.0602 71 60 39
-0.252146 -0.35277 10.9695 34 24 22
-0.310258 -0.358629 11.0628 90 78 56
-0.681803 -0.352353 11.1014 106 104 87
-0.39347 -0.356163 11.0857 46 26 4
-0.729167 -0.345496 11.0402 88 86 68
-0.77234 -0.341361 11.061 139 136 126
-0.619754 -0.343206 11.046 83 79 54
-0.657376 -0.340682 11.0468 74 75 63
-0.670927 -0.339398 11.0421 102 100 89
-0.692033 -0.335609 11.0256 106 104 92
-0.660963 -0.33777 11.0337 60 59 48
-0.544929 -0.34006 11.0384 108 102 78
-0.577144 -0.336557 11.023 150 140 106
-0.327105 -0.335372 10.9512 85 74 52
-0.692443 -0.332437 11.0222 92 90 82
-0.388892 -0.340494 11.0478 74 52 19
-0.313101 -0.337846 10.966 80 68 46
-0.376002 -0.349302 11.1489 53 39 12
-0.743744 -0.317834 10.8835 136 102 94
-0.382981 -0.336274 11.0292 34 18 4
-0.289198 -0.330001 10.9245 36 26 25
-0.325362 -0.332504 10.9756 108 96 62
-0.683032 -0.331437 11.0855 74 75 60
-0.63035 -0.326904 11.0187 137 133 102
-0.652051 -0.325466 11.0159 118 118 98
-0.738378 -0.323675 11.0283 100 94 74
-0.710841 -0.317974 10.9464 126 120 100
-0.616321 -0.323916 11.007 72 70 40
-0.387596 -0.330062 11.0199 56 37 6
-0.677343 -0.322982 11.0445 51 48 31
-0.633811 -0.320596 11.0049 120 110 72
-0.354167 -0.330834 11.0675 99 76 46
-0.657117 -0.31564 10.95 96 94 77
-0.689676 -0.312268 10.9722 129 122 104
-0.360154 -0.31916 10.966 86 74 42
-0.518166 -0.315932 10.9945 140 132 100
-0.643355 -0.313975 11.0198 76 72 42
-0.574059 -0.313145 10.9922 140 138 112
-0.573071 -0.313006 11.0016 81 79 51
-0.553514 -0.310596 10.9867 134 132 110
-0.653731 -0.305805 10.9636 112 106 85
-0.654438 -0.306892 11.0021 120 114 95
-0.600091 -0.304338 10.9662 126 122 98
-0.503654 -0.305399 10.9489 132 126 94
-0.687589 -0.299784 10.9213 88 73 64
-0.502868 -0.306525 10.9898 141 135 101
-0.362879 -0.306131 10.9203 82 72 60
-0.615315 -0.302925 11.0219 76 72 47
-0.568651 -0.300984 10.9645 48 39 16
-0.551887 -0.301461 10.9596 98 92 74
-0.495853 -0.303968 10.9659 100 89 55
-0.586341 -0.300236 10.9742 128 122 94
-0.513735 -0.300678 10.9682 45 39 22
-0.608699 -0.295615 10.9265 148 145 112
-0.551095 -0.296812 10.9206 136 132 109
-0.514392 -0.292961 10.8325 52 46 26
-0.667795 -0.294696 10.9474 66 63 54
-0.575759 -0.300068 10.9966 59 57 34
-0.567846 -0.298182 10.9843 58 54 36
-0.508663 -0.289967 10.8209 85 82 66
-0.617781 -0.285989 10.8325 160 153 125
-0.520606 -0.291166 10.8687 54 49 28
-0.510698 -0.293448 10.9052 50 50 31
-0.492264 -0.295118 10.9362 123 101 62
-0.525392 -0.291114 10.9233 151 136 106
-0.609294 -0.289644 10.972 104 100 86
-0.543978 -0.28148 10.8273 183 170 140
-0.538824 -0.280607 10.8265 116 68 54
-0.316289 -0.599899 11.0252 93 45 37
-0.342085 -0.561079 10.9134 102 100 98
-0.732916 -0.559041 10.9152 67 64 77
-0.713244 -0.54876 10.8949 194 132 121
-0.285852 -0.574186 11.022 121 107 87
-0.533055 -0.570334 11.0609 146 144 144
-0.477134 -0.516872 10.8182 13 14 26
-0.541293 -0.514938 10.8153 176 101 82
-0.32894 -0.538279 10.9434 54 44 30
-0.691907 -0.492862 10.8944 151 164 148
-0.724348 -0.488039 10.8982 156 152 144
-0.344874 -0.493716 10.9472 69 58 44
-0.316528 -0.514952 11.0929 151 144 140
-0.694642 -0.465111 10.9135 96 98 85
-0.715935 -0.474938 10.9842 166 168 149
-0.677708 -0.458414 10.9034 172 172 148
-0.735164 -0.479958 11.0685 84 84 74
-0.687916 -0.455502 10.9312 83 82 70
-0.391636 -0.465098 11.0077 16 22 22
-0.853662 -0.4924 11.2383 65 62 68
-0.687389 -0.443897 10.9489 98 96 81
-0.861704 -0.475753 11.2011 132 64 59
-0.653657 -0.435542 10.9044 76 70 53
-0.65371 -0.427981 10.9134 57 50 24
-0.871878 -0.451506 11.1519 199 193 175
-0.664776 -0.422738 10.9303 14 13 6
-0.4292 -0.418535 10.9191 48 32 16
-0.797995 -0.449659 11.2214 58 50 30
-0.700098 -0.423609 11.0187 30 25 9
-0.653961 -0.410754 10.9302 68 52 30
-0.397261 -0.417416 10.9583 26 12 1
-0.796417 -0.437406 11.2047 150 148 120
-0.450534 -0.407389 10.9111 122 106 77
-0.422927 -0.409075 10.9386 41 26 10
-0.205258 -0.436626 11.1441 107 60 52
-0.452382 -0.403467 10.9205 48 34 10
-0.436255 -0.403744 10.9255 24 16 3
-0.491777 -0.397478 10.9047 90 83 66
-0.770823 -0.422478 11.1843 125 122 106
-0.808501 -0.41392 11.1488 130 126 105
-0.398964 -0.396513 10.9506 57 40 14
-0.640486 -0.392525 10.9589 134 129 97
-0.794834 -0.407227 11.1434 151 150 124
-0.710548 -0.406698 11.1285 158 160 131
-0.788811 -0.405242 11.1455 68 67 59
-0.40783 -0.395412 10.9944 42 26 3
-0.854809 -0.391745 11.0418 104 103 106
-0.21653 -0.407424 11.0867 130 85 79
-0.418696 -0.39038 10.9804 36 14 0
-0.844799 -0.386092 11.0382 82 80 74
-0.725298 -0.398663 11.1515 160 159 136
-0.700379 -0.397501 11.1426 180 172 136
-0.434076 -0.385134 10.9752 68 44 18
-0.844991 -0.380956 11.0172 200 186 156
-0.781687 -0.385906 11.0972 138 130 110
-0.472841 -0.376757 10.9513 48 32 14
-0.830669 -0.372257 10.9831 148 84 79
-0.527458 -0.371775 10.9457 16 6 1
-0.221643 -0.387217 11.0405 71 62 64
-0.590733 -0.370821 10.9584 114 94 52
-0.657406 -0.38001 11.0982 50 50 22
-0.245884 -0.38642 11.0879 106 88 65
-0.778674 -0.374421 11.0824 86 84 72
-0.805487 -0.378432 11.1501 137 132 114
-0.611163 -0.367829 10.9934 90 80 40
-0.761669 -0.372793 11.0929 116 110 85
-0.725378 -0.37681 11.1424 124 122 104
-0.6622 -0.374312 11.1017 140 138 112
-0.476303 -0.36477 10.9853 118 100 40
-0.233879 -0.369537 11.0037 108 40 36
-0.652342 -0.370071 11.1022 156 160 132
-0.777053 -0.361341 11.0556 145 145 130
-0.657875 -0.365756 11.0781 52 52 38
-0.479809 -0.360915 10.9929 78 59 17
-0.47349 -0.363001 11.0031 65 46 8
-0.267864 -0.371057 11.0565 96 82 52
-0.236819 -0.368825 11.0239 106 42 34
-0.243489 -0.364556 10.9941 146 131 100
-0.806877 -0.349561 10.9607 93 90 86
-0.555688 -0.355877 10.9822 62 48 18
-0.731949 -0.357287 11.0604 86 84 70
-0.308985 -0.368512 11.0889 84 76 63
-0.701557 -0.356938 11.0673 148 148 122
-0.246828 -0.357558 10.9811 34 24 28
-0.40602 -0.357425 11.0755 43 20 6
-0.670056 -0.347616 11.0523 106 104 87
-0.761306 -0.339418 10.9922 130 127 115
-0.670519 -0.345881 11.0652 25 24 19
-0.752398 -0.336562 10.9913 143 139 128
-0.618769 -0.34279 11.0398 87 82 56
-0.266342 -0.343259 10.9538 104 24 16
-0.351044 -0.355275 11.1199 76 64 47
-0.273663 -0.337495 10.9391 106 38 26
-0.315092 -0.341809 11.0215 84 73 54
-0.693757 -0.332287 11.0221 104 100 92
-0.631377 -0.331122 11.0181 145 144 120
-0.395476 -0.335322 11.0335 36 12 3
-0.589567 -0.328271 11.0125 112 106 87
-0.388895 -0.331008 11.0282 42 24 5
-0.342225 -0.327662 10.9743 98 82 56
-0.676557 -0.320107 10.9972 138 136 117
-0.512492 -0.324548 11.0073 54 49 19
-0.664888 -0.315485 10.9661 70 70 57
-0.666142 -0.319146 11.0266 44 42 28
-0.317494 -0.318751 10.9134 108 22 16
-0.370831 -0.323698 11.0324 102 91 60
-0.504035 -0.313344 10.9872 53 52 30
-0.588648 -0.310786 10.9867 70 68 50
-0.525426 -0.311183 10.9824 36 36 22
-0.55011 -0.307118 10.9778 36 31 18
-0.502025 -0.302565 10.9541 76 68 42
-0.699607 -0.300306 10.9984 99 95 84
-0.607927 -0.301304 10.9915 62 58 36
-0.579153 -0.301004 10.9995 124 124 100
-0.53764 -0.299191 10.9795 100 96 80
-0.546603 -0.294656 10.9353 64 60 38
-0.520587 -0.296652 10.9556 90 90 76
-0.394379 -0.294476 10.8571 103 44 26
-0.490765 -0.679066 11.1548 233 234 220
-0.312892 -0.587112 10.9699 118 80 72
-0.758956 -0.576399 10.9436 172 131 126
-0.333347 -0.572591 10.9488 22 14 17
-0.341619 -0.559108 10.9026 66 64 61
-0.72083 -0.5534 10.893 176 174 144
-0.70991 -0.54536 10.8832 194 132 121
-0.73374 -0.54788 10.9053 114 113 118
-0.337716 -0.555264 10.9312 36 30 32
-0.713123 -0.537708 10.8858 184 111 90
-0.643412 -0.525566 10.8346 190 185 156
-0.6011 -0.518122 10.8193 190 172 138
-0.367593 -0.518 10.8941 69 55 28
-0.666047 -0.502433 10.8637 190 166 94
-0.717318 -0.489578 10.976 162 160 140
-0.686481 -0.476361 10.8995 134 124 94
-0.682814 -0.463471 10.9029 73 74 66
-0.677365 -0.463429 10.902 87 87 76
-0.68958 -0.462119 10.9168 164 164 143
-0.455181 -0.455248 10.8671 123 86 56
-0.323977 -0.461329 10.9517 78 62 46
-0.782876 -0.471243 11.063 140 68 57
-0.238852 -0.48649 11.1619 134 114 98
-0.654143 -0.435668 10.9073 85 82 61
-0.689427 -0.434677 10.9398 144 144 124
-0.680745 -0.428243 10.9477 74 70 50
-0.814047 -0.460189 11.228 80 77 64
-0.661716 -0.421233 10.9233 16 16 10
-0.656124 -0.412873 10.9319 80 65 46
-0.447169 -0.407819 10.9059 43 28 12
-0.676343 -0.408846 10.9615 62 60 36
-0.433902 -0.409623 10.9319 105 93 58
-0.871487 -0.419683 11.0962 200 200 182
-0.438228 -0.405387 10.9307 27 18 5
-0.758896 -0.433319 11.2257 60 56 46
-0.591304 -0.398428 10.9109 115 120 96
-0.8512 -0.40251 11.055 134 76 63
-0.641057 -0.393622 10.9591 134 128 95
-0.404991 -0.406073 11.0247 57 40 14
-0.821208 -0.387367 10.9462 198 193 170
-0.813834 -0.405434 11.1275 140 138 116
-0.79516 -0.407469 11.1453 151 150 125
-0.408793 -0.397123 11.001 79 61 37
-0.641232 -0.385772 10.9802 46 45 30
-0.821737 -0.391241 11.0762 90 86 68
-0.445105 -0.380845 10.921 48 34 8
-0.819294 -0.390015 11.0895 85 82 73
-0.71091 -0.391007 11.0901 106 104 84
-0.473268 -0.381413 10.9489 132 114 61
-0.43409 -0.385609 10.9745 100 76 44
-0.782811 -0.392548 11.1239 128 126 112
-0.476159 -0.379772 10.9696 53 37 15
-0.841339 -0.375572 11.0117 152 96 87
-0.541847 -0.37305 10.9381 26 19 8
-0.52703 -0.371964 10.9441 26 14 10
-0.733623 -0.387025 11.143 94 91 78
-0.723836 -0.385414 11.1254 158 156 138
-0.227065 -0.387814 11.0529 95 83 72
-0.440503 -0.373399 10.9966 116 90 35
-0.756985 -0.376874 11.1176 157 154 134
-0.706721 -0.369508 11.0965 142 138 106
-0.71862 -0.36665 11.0898 132 132 112
-0.236227 -0.370501 11.0205 120 48 48
-0.819249 -0.353858 10.9819 175 175 168
-0.642654 -0.361766 11.0804 93 92 70
-0.518936 -0.359979 11.012 54 46 18
-0.733237 -0.352081 11.05 158 154 129
-0.639099 -0.346609 10.9733 153 146 113
-0.252211 -0.356363 10.9932 62 52 52
-0.787199 -0.336099 10.9482 166 156 132
-0.753512 -0.336997 10.9956 131 127 116
-0.267654 -0.343126 10.9534 111 26 19
-0.674729 -0.339758 11.0523 82 79 68
-0.366509 -0.345634 11.0701 114 99 64
-0.699101 -0.334935 11.0451 110 106 94
-0.544874 -0.329819 11.0079 62 58 44
-0.501337 -0.331063 11.0164 120 103 64
-0.334484 -0.337067 11.0367 122 104 80
-0.553291 -0.326682 11.0092 121 116 82
-0.299951 -0.326957 10.9385 41 36 30
-0.679224 -0.320932 11.0058 142 142 120
-0.527986 -0.324101 11.0066 116 111 84
-0.647849 -0.315664 10.9907 114 114 96
-0.317259 -0.317678 10.8962 118 32 25
-0.32764 -0.313572 10.8963 134 61 47
-0.532716 -0.313282 10.9881 62 60 42
-0.387712 -0.316646 10.9912 132 117 80
-0.579945 -0.311732 10.9907 35 28 20
-0.546447 -0.31232 11.0105 24 22 17
-0.645504 -0.305432 10.9792 80 74 56
-0.578524 -0.302866 11.0044 62 55 33
-0.583661 -0.300084 10.9897 76 77 61
-0.564875 -0.301331 10.9956 130 124 104
-0.541661 -0.295764 10.9318 100 98 76
-0.511845 -0.298998 10.9694 48 42 22
-0.498051 -0.29538 10.9365 82 74 45
-0.484968 -0.293957 10.9766 162 98 66
-0.313523 -0.583602 10.9604 102 51 48
-0.326465 -0.581568 10.9664 153 144 112
-0.343033 -0.562183 10.9179 102 100 94
-0.704563 -0.544512 10.8787 164 39 25
-0.668857 -0.531246 10.8536 74 74 86
-0.672356 -0.529399 10.8513 152 154 148
-0.675977 -0.523231 10.857 64 62 72
-0.553179 -0.50341 10.8257 136 50 30
-0.691183 -0.490378 10.8905 146 162 152
-0.670765 -0.485675 10.8782 180 149 108
-0.737432 -0.493977 10.9877 110 109 106
-0.701718 -0.472576 10.8979 86 85 82
-0.683558 -0.463868 10.9341 150 149 128
-0.683379 -0.441055 10.8503 47 40 26
-0.854363 -0.489738 11.2346 58 54 65
-0.655327 -0.441386 10.9002 92 85 83
-0.860294 -0.483158 11.2156 196 192 170
-0.667301 -0.435477 10.9185 48 48 36
-0.691943 -0.436091 10.9539 152 152 126
-0.661373 -0.422556 10.9264 58 58 47
-0.673889 -0.419797 10.9519 24 20 8
-0.872796 -0.436555 11.1235 196 190 169
-0.668101 -0.410629 10.9199 133 119 66
-0.657639 -0.413975 10.9372 81 67 48
-0.734236 -0.429354 11.1363 138 134 98
-0.86432 -0.409496 11.0749 156 90 84
-0.818675 -0.41919 11.145 104 96 79
-0.408878 -0.40592 10.9945 112 92 60
-0.404246 -0.40391 11.0059 78 63 30
-0.429251 -0.392946 10.9636 78 64 36
-0.855911 -0.392469 11.0479 82 82 84
-0.778835 -0.402869 11.1442 56 55 56
-0.425344 -0.396601 11.0197 65 43 24
-0.4333 -0.386247 10.9772 62 35 12
-0.845281 -0.38242 11.0191 196 187 156
-0.479832 -0.376899 10.9486 31 15 3
-0.633039 -0.376028 10.9944 40 36 22
-0.223633 -0.390479 11.0689 73 63 66
-0.706891 -0.384446 11.1777 144 146 124
-0.23622 -0.36942 11.005 122 47 48
-0.541962 -0.356315 10.9848 67 54 37
-0.309417 -0.372312 11.1098 78 68 55
-0.781164 -0.348123 10.987 134 132 118
-0.277257 -0.377013 11.1537 117 104 79
-0.775849 -0.33264 10.9171 166 156 132
-0.757739 -0.339935 10.9841 125 122 109
-0.745127 -0.33513 10.9673 140 136 125
-0.689694 -0.344763 11.0656 62 62 50
-0.784066 -0.331157 10.9717 86 83 84
-0.318213 -0.338846 10.9859 91 80 62
-0.4927 -0.328595 11.0121 113 104 66
-0.298364 -0.326175 10.9247 28 22 25
-0.62415 -0.313772 10.9884 155 148 110
-0.575354 -0.310545 10.9715 35 28 16
-0.509063 -0.312623 10.9759 140 134 92
-0.550592 -0.299776 10.9783 114 114 90
-0.580622 -0.29304 11.0166 146 142 110
-0.517085 -0.289401 10.9519 72 64 62
-0.537447 -0.279141 10.8162 118 73 58
-0.303019 -0.604499 11.0151 120 112 102
-0.314771 -0.584281 10.9656 96 46 42
-0.700464 -0.541973 10.8798 161 34 23
-0.683988 -0.538086 10.8599 200 188 146
-0.400997 -0.524655 10.8657 28 18 28
-0.330687 -0.539282 10.9536 53 46 35
-0.617141 -0.513384 10.8545 170 128 94
-0.552255 -0.505429 10.8331 140 29 19
-0.671393 -0.486315 10.8778 182 154 114
-0.758706 -0.50641 11.0657 112 113 111
-0.31248 -0.491845 10.9607 162 156 154
-0.726704 -0.487525 10.9778 93 92 90
-0.702603 -0.473938 10.9113 84 81 80
-0.666582 -0.46409 10.8832 90 84 76
-0.677553 -0.428163 10.9487 69 66 47
-0.658237 -0.415107 10.9334 62 50 36
-0.526271 -0.398261 10.9 36 29 24
-0.511646 -0.399121 10.8983 68 56 37
-0.640577 -0.398566 10.9308 36 31 11
-0.805555 -0.416385 11.1499 151 147 114
-0.521028 -0.391435 10.9212 134 118 73
-0.425292 -0.401547 11.0572 60 38 22
-0.401588 -0.38739 10.9162 60 44 22
-0.757726 -0.399128 11.1369 143 136 112
-0.43912 -0.395638 11.0398 68 42 16
-0.633856 -0.377053 11.0003 42 36 21
-0.827418 -0.359806 11.0054 81 76 82
-0.49092 -0.36015 10.993 52 40 16
-0.280041 -0.362182 11.0336 92 78 55
-0.623038 -0.35331 11.0519 101 88 67
-0.738043 -0.344131 11.0192 78 76 74
-0.777163 -0.330522 10.9424 93 87 85
-0.620061 -0.339975 11.0291 132 131 108
-0.27268 -0.350067 11.0272 126 40 32
-0.678181 -0.341894 11.1483 83 83 66
-0.60642 -0.334693 11.0207 150 144 105
-0.291417 -0.33032 10.9225 52 42 48
-0.634928 -0.324015 11.0048 76 70 49
-0.643912 -0.312909 10.9627 116 114 94
-0.351795 -0.3083 10.9017 52 44 48
-0.516656 -0.299441 11.0235 148 138 99
-0.575192 -0.284274 10.8372 124 120 104
-0.571702 -0.28906 10.9606 146 142 110
-0.494979 -0.294423 10.9965 161 150 110
-0.414303 -0.67444 11.1133 239 239 230
-0.314815 -0.581443 10.9549 117 70 64
-0.345172 -0.571864 10.9646 69 64 63
-0.739233 -0.558982 10.9241 100 100 117
-0.297545 -0.572087 10.997 156 154 153
-0.708454 -0.541032 10.89 173 57 46
-0.60053 -0.519622 10.8207 182 169 138
-0.571292 -0.516809 10.8357 35 40 62
-0.539724 -0.513574 10.8095 164 78 62
-0.400771 -0.521297 10.8511 26 16 24
-0.331214 -0.54037 10.96 48 44 35
-0.588982 -0.50735 10.8282 48 48 64
-0.53932 -0.504611 10.8296 134 23 16
-0.366783 -0.490249 10.9231 73 60 40
-0.74599 -0.500459 11.0368 98 101 98
-0.659983 -0.440911 10.8973 44 42 44
-0.696779 -0.434593 10.9294 62 51 32
-0.666053 -0.422447 10.9483 41 40 32
-0.502099 -0.402674 10.9034 141 128 80
-0.487699 -0.400592 10.9089 68 56 34
-0.848296 -0.40359 11.0219 204 168 164
-0.653626 -0.390695 10.968 76 65 33
-0.860076 -0.394704 11.0545 149 148 148
-0.477252 -0.37883 10.9483 98 81 52
-0.817328 -0.368294 10.9433 148 88 82
-0.650492 -0.372936 11.0614 157 157 124
-0.235292 -0.373123 11.0241 128 66 57
-0.249271 -0.362574 11.0163 80 70 68
-0.741442 -0.346168 11.0308 83 77 68
-0.570539 -0.322851 11.0261 132 124 82
-0.548107 -0.312706 10.984 23 20 8
-0.595276 -0.288848 10.963 90 87 78
-0.579357 -0.524134 10.868 36 40 58
-0.333789 -0.540137 10.9604 48 43 32
-0.576177 -0.505456 10.8252 38 40 64
-0.699358 -0.47086 10.8635 108 110 108
-0.773409 -0.469958 11.0396 185 128 122
-0.388955 -0.454202 10.9353 46 56 53
-0.810114 -0.465284 11.0847 129 128 128
-0.72335 -0.442789 10.9488 166 152 102
-0.741133 -0.456571 11.09 61 54 32
-0.697701 -0.441749 10.9855 116 115 87
-0.729359 -0.449067 11.1293 61 55 41
-0.64704 -0.40275 10.9471 88 76 45
-0.634188 -0.377521 10.989 52 45 28
-0.225176 -0.385979 11.0281 86 74 64
-0.757447 -0.344277 11.0025 143 141 126
-0.640594 -0.337544 11.0237 42 39 28
-0.507584 -0.293316 10.9492 104 100 85
-0.669586 -0.529911 10.8517 30 29 52
-0.713261 -0.519963 10.8989 180 160 118
-0.308643 -0.527248 11.0418 111 102 98
-0.670579 -0.472489 10.8859 126 113 84
-0.531525 -0.459171 10.8388 148 111 80
-0.663967 -0.460764 10.8836 156 144 122
-0.681551 -0.461193 10.8986 65 66 54
-0.666915 -0.460978 10.8973 112 99 76
-0.268373 -0.51919 11.2926 48 38 26
-0.584589 -0.446056 10.8602 123 80 47
-0.673667 -0.450737 10.9037 91 88 81
-0.682589 -0.449869 10.9206 118 115 106
-0.573788 -0.440137 10.8654 100 86 70
-0.67397 -0.43916 10.9091 60 58 51
-0.653165 -0.428235 10.9106 56 48 28
-0.564204 -0.426182 10.88 125 82 47
-0.809891 -0.468372 11.2408 152 143 110
-0.535396 -0.416543 10.8804 151 100 66
-0.686298 -0.423132 10.9582 120 118 100
-0.423097 -0.414972 10.9246 22 12 6
-0.639696 -0.401888 10.9321 69 50 12
-0.827404 -0.413762 11.1266 105 94 72
-0.807886 -0.41268 11.142 144 138 122
-0.797769 -0.403002 11.1333 62 59 46
-0.759152 -0.398964 11.1488 152 148 132
-0.754555 -0.396911 11.1421 58 54 50
-0.767938 -0.386341 11.119 140 137 112
-0.293073 -0.397354 11.1449 67 51 27
-0.755761 -0.38551 11.1249 103 97 83
-0.74511 -0.384947 11.119 114 105 98
-0.267081 -0.387793 11.1028 76 58 44
-0.698918 -0.37924 11.1162 156 156 134
-0.736513 -0.377106 11.1185 136 136 120
-0.744373 -0.373426 11.0998 54 58 53
-0.822265 -0.359216 10.9797 76 74 72
-0.640712 -0.355372 11.0669 149 142 96
-0.32681 -0.355212 11.0586 78 70 58
-0.346893 -0.355101 11.0704 89 75 50
-0.580465 -0.341573 11.0229 72 68 42
-0.642521 -0.335579 11.0305 72 70 61
-0.517517 -0.315455 10.9911 134 128 95
-0.613902 -0.312543 10.9881 149 144 112
-0.540553 -0.310002 10.99 22 19 9
-0.531835 -0.299545 10.9736 76 71 60
-0.373196 -0.544899 10.8782 114 52 46
-0.658147 -0.534895 10.8883 27 26 40
-0.669463 -0.47227 10.8818 136 125 94
-0.824876 -0.503283 11.2299 130 65 56
-0.676872 -0.452669 10.9149 54 51 48
-0.525497 -0.439968 10.8614 150 118 82
-0.674887 -0.438342 10.9011 43 38 34
-0.671846 -0.440414 10.9204 86 84 80
-0.458188 -0.438408 10.8831 111 97 64
-0.864238 -0.477826 11.2091 124 60 54
-0.871936 -0.446431 11.1445 144 97 86
-0.21601 -0.458818 11.1851 50 40 35
-0.671621 -0.418491 10.9472 20 15 6
-0.797827 -0.445169 11.2083 68 58 41
-0.815421 -0.432892 11.1772 98 92 75
-0.80678 -0.434261 11.1793 152 150 122
-0.515597 -0.397963 10.8981 126 108 77
-0.80282 -0.412075 11.1459 148 144 119
-0.640736 -0.391348 10.9634 64 62 48
-0.790228 -0.402505 11.1344 108 108 93
-0.736038 -0.401538 11.1512 100 99 86
-0.819756 -0.386287 11.0714 142 136 115
-0.794035 -0.37833 11.0792 88 78 66
-0.504341 -0.369483 10.9476 50 30 10
-0.822777 -0.362405 10.9764 184 177 160
-0.719784 -0.377507 11.1236 94 90 74
-0.69 -0.373255 11.0978 154 151 138
-0.680196 -0.368585 11.1069 64 63 49
-0.688228 -0.363821 11.0839 53 49 44
-0.383429 -0.356793 11.0575 67 48 28
-0.660521 -0.347229 11.0528 89 90 84
-0.777289 -0.330882 10.937 100 94 88
-0.59551 -0.333655 10.9823 88 87 64
-0.499685 -0.337096 11.0286 70 60 34
-0.593381 -0.331004 11.0196 96 92 64
-0.648413 -0.315526 10.9873 122 123 107
-0.600466 -0.317364 10.9967 98 96 67
-0.522117 -0.315211 10.9905 94 93 75
-0.593423 -0.313017 10.9956 138 136 114
-0.656539 -0.30856 10.9707 54 50 34
-0.597581 -0.311864 10.9917 142 138 106
-0.659004 -0.293621 10.8768 106 102 96
-0.672115 -0.535073 10.8579 183 180 156
-0.844211 -0.503361 11.2599 148 84 72
-0.663224 -0.447261 10.8978 66 62 58
-0.662751 -0.437049 10.9193 70 69 59
-0.404081 -0.439317 10.921 83 65 24
-0.656851 -0.426082 10.9129 144 138 112
-0.689585 -0.427877 10.9587 90 85 70
-0.807348 -0.455989 11.2085 55 49 41
-0.791027 -0.440153 11.2166 53 49 40
-0.523991 -0.391322 10.9022 92 82 58
-0.809059 -0.415431 11.1591 146 142 116
-0.424563 -0.393801 10.9681 67 50 30
-0.762044 -0.393655 11.1212 83 80 73
-0.784387 -0.390719 11.1137 76 65 54
-0.713926 -0.395856 11.1441 158 153 130
-0.771837 -0.371917 11.0892 98 94 77
-0.700544 -0.372798 11.1133 159 158 144
-0.673997 -0.360888 11.0823 84 71 52
-0.631866 -0.336196 11.026 69 66 52
-0.323507 -0.346206 11.0917 104 93 72
-0.615522 -0.330741 11.0184 121 121 92
-0.383808 -0.336292 11.0415 56 39 18
-0.571206 -0.328916 11.0107 44 31 20
-0.558897 -0.323424 11.0017 96 78 38
-0.680701 -0.452796 10.9157 102 98 88
-0.670724 -0.450708 10.9101 129 127 117
-0.850497 -0.488183 11.2258 57 53 58
-0.654206 -0.442011 10.8979 92 84 84
-0.225118 -0.475691 11.2099 108 70 49
-0.399928 -0.424496 10.9419 106 94 58
-0.211704 -0.454103 11.1624 50 42 41
-0.51816 -0.40031 10.9014 118 88 53
-0.80237 -0.426709 11.1763 98 99 89
-0.430425 -0.389173 10.9971 86 60 22
-0.77975 -0.380978 11.0963 85 80 72
-0.77621 -0.379768 11.1028 125 121 98
-0.716901 -0.37279 11.1089 112 110 94
-0.741171 -0.36845 11.0899 100 101 98
-0.40671 -0.533091 10.851 144 144 140
-0.652429 -0.445393 10.897 100 94 80
-0.394076 -0.428456 10.9581 23 11 6
-0.21256 -0.439451 11.1445 102 50 39
-0.530284 -0.396045 10.906 78 69 52
-0.445525 -0.387516 10.9611 82 66 31
-0.692922 -0.349262 11.0587 106 105 82
-0.539408 -0.322104 11.0056 18 16 9
-0.611963 -0.313407 10.99 147 142 108
-0.362359 -0.314964 11.0555 64 23 21
-0.348261 -0.507921 10.9578 100 82 54
-0.841917 -0.47844 11.1744 56 52 62
-0.657481 -0.432275 10.9022 76 72 58
-0.405134 -0.418855 10.9803 72 59 36
-0.778172 -0.379671 11.0831 82 78 72
-0.685807 -0.37541 11.0755 134 132 112
-0.537405 -0.336369 11.0099 88 85 52
-0.49284 -0.330568 11.0154 94 89 56
-0.517193 -0.311646 10.9915 136 130 94
-0.548651 -0.506023 10.8267 132 18 12
-0.669811 -0.48585 10.8759 171 140 104
-0.770912 -0.488608 11.073 176 141 140
-0.868359 -0.457947 11.1606 78 76 82
-0.219526 -0.472655 11.197 96 40 35
-0.659577 -0.419631 10.9433 63 59 49
-0.525765 -0.372055 10.938 21 14 5
-0.501351 -0.373212 10.925 56 36 26
-0.349099 -0.308243 10.8788 128 118 105
-0.550295 -0.299058 10.9722 106 102 82
-0.365392 -0.547412 10.8902 96 15 14
-0.67624 -0.528172 10.868 76 72 83
-0.532008 -0.511941 10.814 136 14 6
-0.505479 -0.41887 10.8864 136 112 69
-0.280573 -0.340608 10.9952 124 112 92
-0.568789 -0.318654 10.9957 140 138 112
-0.461566 -0.455889 10.8628 92 60 30
-0.65521 -0.447328 10.8919 146 141 128
-0.675619 -0.440555 10.9201 109 108 101
-0.659798 -0.424462 10.9198 89 85 65
-0.857706 -0.39978 11.0548 191 174 148
-0.792459 -0.396586 11.1245 74 62 54
-0.730756 -0.399654 11.1582 84 80 62
-0.261547 -0.393051 11.0949 80 66 43
-0.365237 -0.31791 10.5888 108 95 60
-0.51672 -0.331719 11.017 116 109 74
-0.337103 -0.332135 11.0372 108 94 61
-0.351307 -0.328148 11.0556 90 72 40
-0.684679 -0.538963 10.8597 183 171 139
-0.68352 -0.464267 10.9031 51 52 45
-0.533002 -0.455286 10.8468 152 122 88
-0.489395 -0.451418 10.8488 66 68 60
-0.677932 -0.451306 10.9067 123 119 109
-0.207072 -0.455153 11.1733 50 44 35
-0.747664 -0.420944 11.1349 131 128 116
-0.313173 -0.392517 11.1348 86 68 51
-0.695596 -0.37125 11.1045 110 108 96
-0.336217 -0.355943 11.0677 70 55 42
-0.574556 -0.305516 11.0176 66 61 38
-0.394339 -0.294331 10.8533 100 38 22
-0.667217 -0.503477 10.865 179 158 90
-0.672836 -0.452274 10.9038 48 43 38
-0.682807 -0.453378 10.9212 136 132 120
-0.857838 -0.470914 11.1926 126 62 50
-0.863674 -0.455035 11.1606 64 58 56
-0.683958 -0.429504 10.9494 63 64 44
-0.648375 -0.408003 10.9551 132 115 57
-0.515963 -0.398625 10.8997 124 106 70
-0.33667 -0.356804 11.066 110 94 76
-0.435892 -0.279957 10.6972 102 58 40
-0.345416 -0.505637 10.935 84 68 46
-0.871814 -0.451729 11.1501 194 186 176
-0.641245 -0.399421 10.9425 26 18 4
-0.503505 -0.369049 10.9118 80 64 41
-0.335473 -0.356762 11.0691 93 78 62
-0.330148 -0.337583 11.0316 107 90 69
-0.601868 -0.322008 11.0027 74 68 39
-0.53615 -0.501521 10.8223 112 31 18
-0.335366 -0.314835 10.9762 75 27 24
-0.364775 -0.309454 10.9949 76 32 25
-0.433865 -0.297869 10.9926 70 22 12
-0.707426 -0.374759 11.1094 160 158 134
-0.627885 -0.326776 11.0009 90 88 62
-0.565428 -0.302718 10.9823 86 78 58
-0.360727 -0.31833 11.0528 134 117 90
-0.576399 -0.458516 10.8481 162 134 101
-0.463938 -0.438029 10.8757 106 93 56
-0.595381 -0.338195 11.0289 56 54 29
-0.322694 -0.343787 11.0324 79 70 49
-0.315488 -0.340992 11.0146 86 72 48
-0.350138 -0.329352 10.9806 76 59 36
-0.369976 -0.321105 10.9927 92 79 52
-0.558008 -0.312646 10.9926 106 104 76
-0.537048 -0.310618 10.9822 98 98 85
-0.503945 -0.274521 10.4041 44 31 19
-0.401992 -0.309887 11.1733 118 70 62
-0.532486 -0.443902 10.8552 116 88 51
-0.522616 -0.442496 10.8576 115 83 50
-0.5386 -0.416055 10.8822 118 62 28
-0.535337 -0.415995 10.8781 146 93 59
-0.663853 -0.415569 10.9224 70 68 58
-0.261368 -0.393074 11.0952 110 94 72
-0.521389 -0.319371 10.9964 31 28 13
-0.387232 -0.31549 10.982 80 68 46
-0.415216 -0.291116 10.8423 22 14 8
-0.42931 -0.288086 10.8389 24 18 18
-0.563102 -0.281239 10.8246 86 82 69
-0.372564 -0.517925 10.8906 48 36 21
-0.503775 -0.379195 10.9556 82 66 43
-0.518326 -0.373469 10.9365 34 22 7
-0.415442 -0.291738 10.8446 63 54 43
-0.665903 -0.449076 10.9054 103 101 94
-0.609182 -0.328553 11.0144 86 82 50
-0.500623 -0.299226 10.9954 42 33 14
-0.40134 -0.301529 10.9848 80 38 31
-0.428325 -0.289056 10.8433 28 22 21
-0.300413 -0.395878 11.1389 58 46 34
-0.714721 -0.325965 10.9828 147 137 112
-0.552508 -0.51692 10.814 174 169 138
-0.596569 -0.31546 11.001 98 93 64
-0.46574 -0.406214 10.8992 125 110 77
-0.653693 -0.435318 10.9055 116 111 90
-0.537835 -0.439546 10.8574 120 86 54
-0.49357 -0.448631 10.8612 140 120 89
-0.644355 -0.386364 10.905 88 82 50
-0.516884 -0.439596 10.8639 142 106 74
-0.711011 -0.544912 10.8906 140 26 16
-0.347925 -0.543535 10.9005 43 28 15
-0.41003 -0.532651 10.8595 32 29 32
-0.479838 -0.507402 10.8159 133 121 98
-0.385069 -0.502255 10.8981 52 48 42
-0.74094 -0.502325 10.9879 158 152 134
-0.290664 -0.53515 11.3352 83 39 20
-0.472987 -0.455195 10.855 41 32 9
-0.27488 -0.533451 11.328 74 45 31
-0.236042 -0.494419 11.2634 44 37 32
-0.215985 -0.476149 11.2144 89 44 41
-0.693774 -0.432482 10.9663 82 80 62
-0.222171 -0.469749 11.2046 94 48 36
-0.815188 -0.452116 11.2137 81 81 67
-0.635842 -0.391339 10.9467 126 123 92
-0.855435 -0.393934 11.0437 80 79 77
-0.231449 -0.399133 11.0873 87 70 54
-0.299454 -0.397346 11.1379 70 57 42
-0.761094 -0.384382 11.117 98 92 68
-0.254429 -0.378572 11.0434 86 72 50
-0.285903 -0.379733 11.091 70 62 48
-0.491773 -0.354227 10.9717 78 64 34
-0.675247 -0.347282 11.0621 42 40 27
-0.501188 -0.32902 11.0128 74 57 17
-0.507199 -0.307978 10.9863 131 124 96
-0.359772 -0.30263 10.8659 31 22 18
-0.407523 -0.532092 10.8502 92 90 90
-0.754969 -0.48184 11.0314 194 190 184
-0.276673 -0.533745 11.3248 86 51 44
-0.495363 -0.453713 10.8544 136 120 90
-0.267126 -0.522182 11.3115 57 46 32
-0.374079 -0.459803 10.9312 44 39 38
-0.677643 -0.437149 10.9091 68 66 52
-0.224978 -0.486563 11.2233 56 44 38
-0.689259 -0.4251 10.971 125 122 104
-0.768823 -0.434558 11.2092 67 65 48
-0.49518 -0.397341 10.9325 24 13 3
-0.399857 -0.400827 10.9853 38 19 0
-0.770028 -0.409726 11.1634 82 77 60
-0.632909 -0.389904 10.9615 76 76 50
-0.303263 -0.396488 11.1408 86 74 60
-0.724941 -0.385714 11.1309 154 150 132
-0.507344 -0.372577 10.9508 88 68 46
-0.245916 -0.384617 11.0689 88 74 52
-0.658268 -0.370632 11.0762 120 119 96
-0.267663 -0.37379 11.0676 96 80 55
-0.703877 -0.362698 11.0815 84 82 70
-0.807774 -0.34878 10.9605 132 126 122
-0.309518 -0.370513 11.0993 66 57 46
-0.662233 -0.360823 11.0777 75 67 48
-0.278404 -0.33838 10.9386 154 128 96
-0.566789 -0.330659 11.0112 142 130 90
-0.389709 -0.335268 11.0377 112 96 60
-0.330581 -0.323397 10.8523 93 77 54
-0.340662 -0.322568 10.898 80 64 38
-0.301877 -0.602114 11.0019 99 92 86
-0.373276 -0.543439 10.8707 111 48 43
-0.300282 -0.577056 11.0272 154 148 140
-0.267435 -0.51692 11.2813 48 38 30
-0.257737 -0.528322 11.3605 52 42 38
-0.704565 -0.448138 10.9554 116 112 82
-0.227671 -0.484132 11.2079 50 38 30
-0.223259 -0.475949 11.2202 94 44 34
-0.868253 -0.45548 11.1568 69 68 69
-0.688727 -0.425187 10.9628 100 96 78
-0.872496 -0.443155 11.14 140 74 69
-0.407874 -0.422879 10.952 57 53 36
-0.207899 -0.454938 11.1785 53 44 38
-0.872533 -0.43577 11.1227 190 182 162
-0.867438 -0.417093 11.0846 200 190 171
-0.408854 -0.40292 10.9808 68 48 24
-0.720574 -0.403972 11.1069 121 120 108
-0.218978 -0.402842 11.0785 118 80 67
-0.790671 -0.394877 11.1228 84 72 65
-0.232133 -0.399885 11.0882 92 74 60
-0.505103 -0.375554 10.9283 88 70 46
-0.263626 -0.396016 11.1252 86 70 56
-0.730427 -0.385298 11.1335 79 75 65
-0.325898 -0.389062 11.1297 88 72 50
-0.45661 -0.367427 10.9983 80 62 16
-0.742964 -0.367765 11.0971 132 133 124
-0.720342 -0.357711 11.0666 150 148 124
-0.666626 -0.362233 11.0942 75 67 48
-0.505574 -0.356485 10.99 52 40 20
-0.323976 -0.363604 11.0978 95 84 67
-0.377386 -0.358719 11.0751 75 58 30
-0.635532 -0.333852 11.0191 26 24 14
-0.601309 -0.335821 11.0251 89 89 60
-0.399696 -0.336284 11.0419 61 39 9
-0.330017 -0.325489 10.868 104 90 67
-0.299433 -0.32388 10.9033 26 22 16
-0.519494 -0.315921 10.9994 110 104 75
-0.327622 -0.312081 10.8879 94 25 14
-0.414293 -0.680689 11.1352 236 236 224
-0.693321 -0.493618 10.8976 152 161 142
-0.753457 -0.480294 11.02 192 190 185
-0.272789 -0.503366 11.1885 86 78 64
-0.235335 -0.490262 11.2454 42 36 32
-0.423587 -0.416238 10.9296 88 74 56
-0.207888 -0.419918 11.0957 54 50 47
-0.799007 -0.388239 11.0703 126 122 98
-0.231732 -0.401085 11.0956 111 92 76
-0.451796 -0.378081 10.9594 71 49 16
-0.739409 -0.3825 11.1111 82 76 68
-0.229909 -0.379855 11.0293 142 125 97
-0.773025 -0.372458 11.0919 86 84 70
-0.244067 -0.365046 10.9903 144 127 98
-0.310263 -0.370716 11.0927 90 80 66
-0.247984 -0.3585 10.9845 54 44 48
-0.406266 -0.358947 11.0746 30 8 0
-0.687586 -0.351511 11.0702 108 104 82
-0.50633 -0.503401 10.8209 54 47 48
-0.849475 -0.499464 11.2478 195 190 170
-0.235779 -0.488908 11.2301 48 42 38
-0.231103 -0.485212 11.2064 44 38 39
-0.220509 -0.46982 11.1899 97 38 37
-0.674324 -0.42482 10.9244 48 46 30
-0.866794 -0.425743 11.0999 75 72 76
-0.209191 -0.434452 11.1107 105 49 44
-0.813496 -0.404561 11.1259 132 130 112
-0.775918 -0.385369 11.1147 154 150 123
-0.660353 -0.366152 11.0784 46 44 31
-0.246958 -0.361736 11.017 54 43 48
-0.284099 -0.348929 11.0655 33 25 29
-0.538289 -0.329657 11.0087 28 22 12
-0.349133 -0.307505 10.8779 70 60 58
-0.342003 -0.560926 10.91 81 78 76
-0.621608 -0.513851 10.8051 174 86 74
-0.69419 -0.492957 10.9034 141 156 143
-0.764051 -0.466883 11.0084 90 46 47
-0.653171 -0.445148 10.8963 114 108 96
-0.660813 -0.43972 10.8934 30 24 29
-0.209979 -0.460087 11.1988 74 64 58
-0.672336 -0.403762 11.0028 116 114 82
-0.660046 -0.378507 10.955 176 168 132
-0.775077 -0.385523 11.112 142 137 115
-0.265373 -0.396729 11.1309 107 90 78
-0.343206 -0.551907 10.9162 30 24 28
-0.238116 -0.482318 11.1551 93 89 83
-0.86283 -0.47517 11.2029 138 62 56
-0.643391 -0.402011 10.9402 76 64 31
-0.208148 -0.425881 11.1244 110 100 90
-0.638523 -0.394782 10.9423 110 103 70
-0.527797 -0.392389 10.9348 18 10 0
-0.819343 -0.393492 11.0808 97 92 78
-0.257011 -0.361424 11.092 140 98 77
-0.754564 -0.341394 11.0054 118 114 94
-0.522188 -0.333538 11.0238 91 82 66
-0.395693 -0.337902 11.0343 102 78 50
-0.291815 -0.336629 10.9926 68 60 56
-0.584894 -0.315431 10.9868 28 24 20
-0.742283 -0.476488 11.0299 102 93 83
-0.854477 -0.46988 11.1697 134 65 60
-0.236751 -0.381346 11.1185 104 64 57
-0.716891 -0.360964 11.0915 86 83 70
-0.252162 -0.355851 10.9637 68 58 58
-0.493624 -0.316091 10.9941 126 114 82
-0.75961 -0.568355 10.9502 165 142 130
-0.728144 -0.557421 10.9058 76 74 65
-0.384479 -0.504151 10.889 68 68 60
-0.311376 -0.551276 11.3584 72 68 66
-0.709202 -0.464615 10.9517 82 82 70
-0.779103 -0.505572 11.2474 122 116 108
-0.723898 -0.463961 10.9966 30 24 10
-0.227473 -0.492725 11.2463 58 52 50
-0.224326 -0.488522 11.2392 58 46 40
-0.699434 -0.439176 10.9626 30 26 10
-0.393883 -0.423935 10.9501 78 68 48
-0.684686 -0.415766 10.9807 122 111 75
-0.830066 -0.39628 11.1077 102 100 84
-0.638495 -0.383863 10.9787 28 21 8
-0.779381 -0.387023 11.1223 148 144 121
-0.671945 -0.373905 11.0704 66 66 55
-0.617737 -0.366261 11.0566 84 82 52
-0.713575 -0.363274 11.0768 80 80 66
-0.794185 -0.339527 10.9505 128 103 95
-0.389011 -0.340228 11.045 54 29 6
-0.634562 -0.306771 11.0214 66 62 42
-0.486262 -0.284663 10.8497 44 37 26
-0.729355 -0.55804 10.9083 74 73 73
-0.323262 -0.536129 11.2568 100 80 52
-0.707847 -0.47464 10.9539 122 122 112
-0.697489 -0.459472 10.933 68 68 55
-0.718111 -0.456648 11.0059 112 104 76
-0.241214 -0.466736 11.0831 48 43 38
-0.815057 -0.466649 11.2705 148 136 91
-0.206421 -0.44206 11.1554 106 57 46
-0.213532 -0.438012 11.1393 108 57 46
-0.407645 -0.394871 10.9923 30 18 1
-0.853744 -0.392348 11.0385 98 98 98
-0.808878 -0.404562 11.1493 138 136 116
-0.767977 -0.399703 11.1618 84 83 66
-0.766155 -0.37489 11.1111 115 112 83
-0.240729 -0.368167 10.9914 126 73 59
-0.76602 -0.361886 11.0596 74 76 65
-0.752214 -0.358518 11.059 105 99 81
-0.674822 -0.362166 11.0895 80 70 54
-0.776137 -0.332069 10.9232 134 130 116
-0.365004 -0.343771 11.0531 59 46 26
-0.379243 -0.350351 11.1871 60 44 18
-0.615819 -0.329392 11.0184 152 150 120
-0.663483 -0.324839 11.0156 44 44 27
-0.660514 -0.325305 11.0206 90 90 71
-0.369753 -0.3204 10.997 104 89 60
-0.575859 -0.311258 10.9833 28 25 14
-0.495854 -0.310701 10.9899 138 130 90
-0.5402 -0.300856 10.9722 109 102 77
-0.501883 -0.289456 10.8831 114 108 93
-0.759669 -0.569455 10.9487 173 143 138
-0.706832 -0.546177 10.8809 172 92 76
-0.393646 -0.53462 10.8572 20 15 11
-0.628154 -0.520189 10.8325 140 34 22
-0.343887 -0.48698 10.9565 50 44 36
-0.719886 -0.475072 10.9779 170 170 151
-0.214838 -0.471006 11.207 96 56 44
-0.783615 -0.43888 11.2285 50 47 45
-0.213915 -0.420839 11.1132 84 77 71
-0.654702 -0.392085 10.9587 60 47 23
-0.795203 -0.382892 11.0879 143 138 113
-0.228041 -0.383307 11.0532 144 130 103
-0.801016 -0.372704 11.0644 112 108 84
-0.753503 -0.369804 11.08 149 147 118
-0.690942 -0.370326 11.1008 62 60 54
-0.67441 -0.368137 11.0836 79 78 66
-0.775515 -0.356136 11.0527 94 93 90
-0.800037 -0.340503 10.9682 131 102 97
-0.533844 -0.310958 11.0008 36 33 14
-0.641442 -0.307508 11.0134 55 48 36
-0.680967 -0.299227 10.9591 96 94 83
-0.537657 -0.294883 10.9081 113 110 88
-0.629247 -0.292349 10.9603 132 99 84
-0.516595 -0.289387 10.9145 143 136 103
-0.513068 -0.301042 11.0325 108 102 79
0.0359008 -0.2021 10.8384 111 106 106
-0.765839 -0.57559 10.9694 170 138 132
-0.229775 -0.484609 11.2101 50 42 44
-0.724936 -0.440946 11.0127 98 93 65
-0.871768 -0.435707 11.1196 192 186 163
-0.855371 -0.391669 11.0456 80 80 80
-0.783223 -0.404277 11.1604 55 54 54
-0.796497 -0.392045 11.1398 118 108 85
-0.222438 -0.387846 11.0536 72 62 66
-0.722302 -0.378426 11.1192 144 144 117
-0.485492 -0.358324 10.9601 70 56 28
-0.756562 -0.358944 11.0583 87 84 70
-0.732057 -0.346649 11.0456 94 92 73
-0.32044 -0.342825 11.0429 82 72 48
-0.566428 -0.310394 10.9812 128 125 102
-0.34978 -0.309157 10.9069 26 16 20
-0.336722 -0.555077 10.9299 37 29 25
-0.591455 -0.519281 10.8492 168 164 148
-0.792468 -0.496047 11.1663 86 79 70
-0.332968 -0.515243 11.3063 58 44 36
-0.681483 -0.442603 10.9476 89 88 74
-0.739669 -0.424317 11.1047 109 104 84
-0.753843 -0.431423 11.2138 101 96 87
-0.642853 -0.386851 10.9847 51 49 34
-0.460163 -0.382585 10.9524 64 50 21
-0.233663 -0.399121 11.0835 119 102 84
-0.44741 -0.381241 10.9656 89 70 39
-0.651744 -0.372456 11.0654 158 156 126
-0.732471 -0.358866 11.0947 158 154 128
-0.381036 -0.331307 10.9685 38 22 4
-0.625941 -0.322574 10.9617 48 44 29
-0.310334 -0.329819 11.0149 108 28 22
-0.387196 -0.314911 10.9826 92 82 52
-0.598783 -0.51774 10.8151 186 172 139
-0.369416 -0.487624 10.9297 56 43 34
-0.284577 -0.499065 11.1132 88 36 30
-0.735864 -0.470627 11.016 70 58 47
-0.655473 -0.44099 10.8977 44 41 40
-0.229681 -0.499031 11.2859 54 50 47
-0.863824 -0.473671 11.1999 142 64 60
-0.786379 -0.43638 11.2547 130 128 109
-0.646168 -0.389208 10.9968 54 54 37
-0.214412 -0.403091 11.0654 115 58 54
-0.526241 -0.371513 10.9466 19 4 0
-0.250092 -0.35904 10.9982 64 54 58
-0.790449 -0.334943 10.9582 162 147 129
-0.75359 -0.339793 10.9733 122 120 105
-0.317146 -0.34477 11.0381 106 96 81
-0.552432 -0.335632 11.014 80 71 41
-0.399876 -0.344496 11.0986 76 54 30
0.036184 -0.203094 10.8419 153 149 149
-0.335184 -0.579018 10.9806 12 8 16
-0.586117 -0.524668 10.8568 114 113 113
-0.28469 -0.497981 11.1109 104 54 48
-0.804219 -0.469618 11.0757 136 132 132
-0.649013 -0.439942 10.9089 176 168 127
-0.69567 -0.439078 10.9736 149 148 123
-0.736414 -0.426525 10.9612 73 67 50
-0.777509 -0.435095 11.1885 42 43 40
-0.213866 -0.403433 11.0712 120 60 56
-0.282153 -0.367641 11.0936 103 94 76
-0.268401 -0.348471 11.0091 118 42 32
-0.604295 -0.312264 10.9716 138 134 96
-0.559962 -0.315783 11.0066 134 132 102
-0.753902 -0.579627 10.952 183 172 151
-0.548523 -0.503633 10.8165 134 22 14
-0.309537 -0.540212 11.3038 59 54 55
-0.267151 -0.515993 11.2655 94 84 73
-0.679928 -0.419799 10.9969 121 114 85
-0.491954 -0.393288 10.8934 23 16 6
-0.820805 -0.394716 11.0878 94 92 80
-0.304924 -0.390717 11.1009 98 84 69
-0.256647 -0.364593 11.0714 143 130 93
-0.399133 -0.340299 11.0694 105 82 51
-0.344248 -0.493527 10.9716 88 82 68
-0.34332 -0.486414 10.9575 25 23 17
-0.320346 -0.512855 11.11 130 112 91
-0.72661 -0.473611 10.9969 96 94 84
-0.780948 -0.495258 11.1578 74 64 50
-0.659125 -0.41275 10.8451 136 134 112
-0.218879 -0.403287 11.0877 116 77 61
-0.688867 -0.38139 11.092 147 147 130
-0.74672 -0.357707 11.1027 162 159 134
-0.772606 -0.326999 10.9414 72 73 68
-0.362887 -0.341599 11.0434 56 46 24
-0.506046 -0.282912 10.8074 94 81 48
-0.31751 -0.575644 10.9383 140 97 82
-0.520819 -0.512062 10.8055 112 42 22
-0.343313 -0.506401 10.931 76 66 50
-0.748683 -0.502368 10.9815 148 146 142
-0.661563 -0.4176 10.8678 57 56 32
-0.714505 -0.416581 11.0712 110 105 83
-0.714434 -0.40762 11.169 152 148 120
-0.705443 -0.390578 11.1072 160 158 136
-0.659463 -0.367483 11.0884 44 44 30
-0.363039 -0.366461 11.1075 70 52 36
-0.393235 -0.363141 11.1024 38 20 6
-0.383804 -0.362936 11.1104 59 38 11
-0.604475 -0.346119 11.0539 84 88 63
-0.373351 -0.34167 11.0374 73 54 12
-0.499734 -0.334573 11.0242 80 70 30
-0.506277 -0.323886 11.0029 130 120 82
-0.73013 -0.310863 10.8982 94 92 80
-0.568006 -0.321517 11.0178 144 138 99
-0.712137 -0.305082 10.9077 156 156 140
-0.61229 -0.305875 10.9735 116 112 78
-0.332574 -0.566727 10.9295 21 13 14
-0.721143 -0.553942 10.8942 182 181 150
-0.322475 -0.562377 10.9438 100 58 38
-0.323048 -0.606421 11.6581 150 144 132
-0.232047 -0.485477 11.1697 74 52 48
-0.666784 -0.417167 10.9249 41 40 25
-0.418749 -0.417386 10.9367 94 92 67
-0.419381 -0.396445 10.9657 78 72 35
-0.639463 -0.392362 10.9855 88 88 60
-0.637117 -0.383262 10.9614 48 46 26
-0.802692 -0.395782 11.1229 100 95 78
-0.765268 -0.398646 11.1467 112 110 91
-0.645274 -0.371033 11.069 168 170 140
-0.728937 -0.336077 11.0235 108 104 86
-0.778851 -0.32816 10.9643 72 73 68
-0.389902 -0.340074 11.0472 74 52 16
-0.372373 -0.335474 11.0251 51 34 8
-0.526947 -0.319135 11.0046 46 48 25
-0.509083 -0.316644 11.0081 132 134 102
-0.563895 -0.300957 10.9912 134 130 106
-0.563949 -0.297063 10.9599 65 54 32
-0.74329 -0.569718 10.9304 190 188 165
-0.803685 -0.534724 11.1762 138 136 132
-0.758721 -0.456275 11.1566 142 140 116
-0.664876 -0.415087 10.9158 40 38 24
-0.703701 -0.399585 11.1572 182 174 136
-0.798828 -0.375187 11.0842 106 98 78
-0.665646 -0.369935 11.0476 79 80 70
-0.623943 -0.375333 11.0481 102 92 48
-0.73071 -0.368509 11.0953 122 121 106
-0.663732 -0.365836 11.1104 102 102 86
-0.716062 -0.355731 11.0347 151 149 124
-0.382058 -0.376998 11.1926 46 38 18
-0.778216 -0.330239 10.945 88 86 84
-0.517249 -0.316112 11.0009 140 136 97
-0.453194 -0.286268 10.8367 133 68 45
-0.701423 -0.47997 10.9222 159 160 136
-0.763779 -0.478704 11.0859 136 126 91
-0.873253 -0.45232 11.1551 199 194 176
-0.780925 -0.437264 11.2052 50 50 48
-0.745336 -0.379016 11.1143 146 146 128
-0.668184 -0.367096 11.0604 68 69 60
-0.493577 -0.362119 11.0105 46 38 12
-0.372856 -0.357507 11.1809 72 60 33
-0.559524 -0.298253 10.9617 115 110 86
-0.734697 -0.55714 10.9128 64 66 85
-0.344646 -0.552039 10.9205 28 22 26
-0.654581 -0.407641 10.9421 140 135 94
-0.862045 -0.401081 11.0621 196 190 163
-0.406339 -0.402385 11.0031 94 78 44
-0.842395 -0.375846 11.0179 144 88 78
-0.691077 -0.365469 11.0796 66 66 60
-0.559666 -0.317926 10.9898 146 136 98
-0.627052 -0.303876 10.9489 80 74 56
-0.61669 -0.519072 10.8351 140 21 11
-0.701497 -0.473508 10.9002 84 80 78
-0.780795 -0.436934 11.1605 66 58 36
-0.71353 -0.358061 11.0742 84 82 68
-0.69529 -0.32437 11.038 156 154 130
-0.430813 -0.291203 10.8697 50 44 38
-0.355044 -0.556268 10.8969 212 207 180
-0.617646 -0.554873 10.9909 124 124 130
-0.552442 -0.513928 10.8067 182 174 140
-0.695427 -0.492835 10.9031 169 178 153
-0.584191 -0.331449 11.0236 51 48 34
-0.317739 -0.580409 10.9569 93 42 32
-0.749779 -0.489705 11.0431 170 170 156
-0.440726 -0.642263 12.1154 52 52 49
-0.715753 -0.391104 11.1408 92 94 78
-0.777761 -0.382869 11.0991 71 68 50
-0.659551 -0.381039 11.1048 68 68 38
-0.661154 -0.371652 11.0567 72 66 58
-0.619592 -0.351704 10.9565 72 71 47
-0.587922 -0.341356 11.0382 74 69 32
-0.328907 -0.527531 10.9589 44 38 18
-0.810553 -0.458053 11.2166 56 52 42
-0.874242 -0.443185 11.1415 168 114 106
-0.828059 -0.413677 11.1283 110 102 77
-0.690882 -0.379839 11.1163 154 156 134
-0.688745 -0.37682 11.1143 102 101 88
-0.756228 -0.372376 11.1165 137 139 132
-0.699494 -0.371173 11.1045 167 170 150
-0.656564 -0.362833 11.0127 119 118 109
-0.722937 -0.353291 11.0709 170 166 134
-0.507463 -0.3226 11.0267 94 89 50
-0.802027 -0.450386 11.2156 154 150 119
-0.212244 -0.405837 11.0885 114 64 58
-0.289466 -0.330577 10.9277 34 27 24
-0.727986 -0.309772 10.8924 102 100 88
-0.665715 -0.29413 10.8606 88 82 76
-0.525501 -0.295153 10.9305 80 78 57
-0.503879 -0.289016 10.8813 131 130 112
-0.793673 -0.389101 11.0703 150 144 117
-0.712722 -0.388182 11.158 116 116 104
-0.613897 -0.367222 11.0425 114 108 63
-0.657534 -0.340099 11.0491 68 69 57
-0.720585 -0.335554 11.0371 121 112 94
-0.290643 -0.329011 10.921 52 45 52
-0.865525 -0.417809 11.081 200 200 177
-0.643481 -0.402094 10.9137 148 140 97
-0.727963 -0.400352 11.1611 166 166 141
-0.272963 -0.339677 10.9532 106 28 20
-0.626607 -0.303533 10.9511 60 54 38
-0.5824 -0.296337 10.9267 94 90 66
0.0377115 -0.202398 10.8521 163 156 158
-0.412469 -0.666689 11.0842 246 246 236
-0.265032 -0.504433 11.1731 76 48 49
-0.849298 -0.478259 11.1843 198 191 166
-0.794392 -0.43584 11.1956 143 138 112
-0.342399 -0.482135 10.9695 32 30 26
-0.801562 -0.438309 11.2159 148 144 120
-0.635999 -0.351419 11.0656 128 122 80
-0.421065 -0.683445 11.1409 239 240 229
-0.704406 -0.453122 10.9273 77 70 60
-0.553404 -0.38244 10.902 130 92 47
-0.688243 -0.37772 11.1746 76 73 64
-0.595004 -0.312016 10.9501 134 131 92
-0.426958 -0.291529 10.8461 146 136 106
-0.826559 -0.374712 11.0107 106 96 78
-0.823361 -0.35391 10.9932 144 138 130
-0.293519 -0.342629 11.0343 31 21 14
-0.316247 -0.51551 11.1011 182 176 172
-0.82709 -0.406987 11.1173 102 96 70
-0.704755 -0.379267 11.1173 136 137 110
-0.636415 -0.354093 11.0666 114 110 74
-0.410694 -0.420208 10.9463 84 84 71
-0.661107 -0.34139 11.0718 38 36 24
-0.741489 -0.347839 11.0441 98 94 86
-0.416397 -0.291587 10.844 41 33 28
-0.740091 -0.384281 11.1208 91 86 74
-0.801413 -0.393616 11.0912 118 114 88
-0.771303 -0.385614 11.1052 136 134 110
-0.493517 -0.713167 11.3126 226 226 208
-0.331625 -0.524022 11.3504 58 42 20
-0.818225 -0.408778 11.1222 111 114 106
-0.449196 -0.680812 11.1207 229 229 218
-0.458342 -0.679662 11.1257 239 238 227
-0.809327 -0.413281 11.1491 154 150 124
-0.821477 -0.418716 11.1391 84 78 62
-0.359899 -0.349591 11.0692 70 54 24
-0.380705 -0.333821 11.0309 36 20 6
-0.73126 -0.443262 10.9797 100 68 57
-0.215068 -0.449908 11.1769 76 69 60
-0.262594 -0.35119 11.0297 27 22 13
-0.645029 -0.304536 11.0593 74 70 44
-0.395787 -0.422515 10.9715 50 38 20
-0.366026 -0.478546 10.9308 114 94 53
-0.445574 -0.495081 10.8475 132 98 60
-0.446333 -0.405392 10.925 33 22 4
-0.60798 -0.303274 10.995 66 64 38
-0.527783 -0.401774 10.9059 70 55 44
-0.300241 -0.599334 10.9982 72 63 61
-0.669515 -0.535307 10.8556 202 204 185
-0.604937 -0.520662 10.8315 240 227 181
-0.601712 -0.53508 10.9274 43 40 42
-0.32814 -0.539537 10.9528 64 50 32
-0.370919 -0.516732 10.8957 100 94 76
-0.370067 -0.516002 10.9009 42 40 26
-0.543631 -0.500058 10.8292 194 158 124
-0.37111 -0.504637 10.9059 84 86 72
-0.34533 -0.509164 10.952 90 80 63
-0.3649 -0.494544 10.9167 46 29 14
-0.431366 -0.46862 10.8738 62 65 57
-0.339704 -0.478647 10.9782 20 24 22
-0.454164 -0.455016 10.8704 110 80 44
-0.362975 -0.469271 10.9608 62 62 53
-0.36409 -0.464639 10.9441 64 64 56
-0.671433 -0.447519 10.9122 132 130 126
