ply
format ascii 1.0
element vertex 1342
property float x
property float y
property float z
property uchar red
property uchar green
property uchar blue
end_header
-4.58492 1.19987 8.46687 111 24 28
-4.55609 1.20144 8.46732 121 19 20
-4.54777 1.20512 8.51685 124 18 18
-4.48348 1.21004 8.46535 118 38 36
-1.27219 1.3883 9.62376 118 89 74
-0.932203 1.32164 9.06239 140 116 106
0.671945 1.39086 9.41893 89 68 54
-4.74845 1.17226 8.22791 97 40 42
-0.428725 1.28175 8.61169 111 28 20
-0.0311722 1.29037 8.65516 111 25 20
0.696375 1.41663 9.41559 102 85 71
-0.337263 1.30633 8.63359 66 52 38
0.37727 1.35823 9.0149 132 108 98
2.70902 1.5372 10.1494 109 40 42
-4.52557 1.24801 8.57666 115 34 30
-4.38817 1.47745 10.4307 140 90 60
-0.982781 1.41392 9.39362 120 91 81
-0.925201 1.34533 8.98568 164 142 133
-0.128984 1.32079 8.63868 80 67 52
-0.0743821 1.31239 8.62849 95 83 68
0.739074 1.41648 9.37889 122 106 92
-4.64879 1.2136 8.39086 116 22 26
-0.425986 1.30819 8.61201 116 32 26
0.352373 1.36351 8.90611 136 100 93
0.413602 1.38562 9.09844 121 104 90
0.60601 1.42872 9.37092 116 99 89
-4.51409 1.26944 8.56044 126 48 40
-1.19071 1.41757 9.39215 100 72 60
-1.15775 1.44055 9.44376 104 80 68
-0.901045 1.4022 9.26006 132 108 99
0.749806 1.44011 9.36909 126 109 97
-4.65002 1.2457 8.37738 106 33 35
-1.291 1.41752 9.41833 150 122 111
-0.0341843 1.3676 8.63008 122 24 20
-1.20013 1.44866 9.37463 135 111 106
-0.903469 1.41188 9.10569 139 112 104
0.679888 1.45888 9.41703 90 62 53
0.753481 1.48017 9.40878 136 118 107
2.96998 1.58648 9.99816 150 80 60
-4.57295 1.27856 8.43594 64 24 30
-4.57253 1.27891 8.46526 94 40 43
-4.55787 1.26932 8.47829 106 37 36
-3.6548 1.54739 10.342 118 72 51
-1.28082 1.46513 9.42867 130 104 94
-0.931219 1.43526 9.19116 132 106 97
0.635595 1.49219 9.47142 132 116 108
-0.542041 1.36097 8.57207 132 39 34
-0.467624 1.40223 8.8154 110 30 26
0.309826 1.41789 8.87152 150 40 39
2.60446 1.55013 9.81166 30 14 12
-0.849466 1.43395 9.01759 142 42 38
-0.41994 1.38969 8.69221 98 16 12
0.74283 1.49735 9.36338 136 118 109
-4.63155 1.29166 8.38562 74 43 50
-0.606819 1.43191 8.91295 144 53 52
-0.236066 1.40011 8.66184 50 39 24
-0.059364 1.41559 8.69048 116 74 68
0.0328265 1.41386 8.74449 135 39 37
2.64693 1.6142 9.99592 160 134 129
-4.75604 1.2725 8.20742 110 23 24
-4.68455 1.29802 8.40105 108 32 34
-4.50519 1.57339 10.3898 107 66 33
-0.632784 1.42952 8.82968 146 54 50
-0.0850578 1.41611 8.67544 74 34 28
0.0690012 1.42305 8.75525 132 40 36
0.331665 1.44051 8.91394 140 58 57
-0.659529 1.43953 8.83848 146 38 34
-0.376493 1.43702 8.7824 90 20 13
0.0979017 1.42136 8.71561 136 30 32
0.60864 1.52749 9.36063 117 102 92
-1.26941 1.50873 9.44898 135 116 108
0.557498 1.51867 9.2873 134 118 108
0.699003 1.52676 9.42891 116 94 86
-4.82668 1.31329 8.32421 88 37 42
-4.74903 1.31038 8.26015 111 22 26
-4.6678 1.32838 8.42461 89 46 46
-4.26879 1.67068 10.5665 142 96 73
-0.113934 1.43914 8.71706 73 46 36
0.134989 1.44323 8.7517 144 26 29
0.305473 1.47406 8.91813 156 32 34
0.331815 1.47247 8.91538 134 57 54
2.95881 1.68237 10.0125 108 87 84
-0.243713 1.46872 8.75074 84 68 54
-0.158629 1.45776 8.73778 98 56 46
0.705817 1.57384 9.44958 116 95 87
-4.78429 1.34328 8.31582 96 38 42
0.164786 1.47949 8.83939 126 36 36
0.317641 1.49155 8.84435 157 96 86
0.216446 1.48683 8.76441 162 28 28
2.4205 1.75972 10.5046 125 89 74
-4.66154 1.38769 8.46122 78 12 10
-4.6315 1.38536 8.44999 92 16 16
-4.62204 1.37935 8.46617 104 13 15
-4.52478 1.3891 8.55936 120 22 18
-4.56724 1.39367 8.7043 116 36 26
-1.26568 1.56981 9.3641 146 122 113
-1.24435 1.58159 9.43638 123 102 95
-0.722204 1.4821 8.793 155 35 32
-0.32158 1.5086 8.85931 118 28 22
-0.294463 1.50509 8.82532 147 28 23
0.672351 1.59957 9.4051 130 110 97
0.704402 1.60373 9.45822 114 94 84
0.73436 1.58268 9.47358 136 118 109
-4.80651 1.37456 8.3472 69 28 34
-0.20972 1.50713 8.84378 142 33 25
-0.183594 1.50021 8.78153 136 37 28
-4.38322 1.69016 10.4095 128 84 60
-4.52236 1.42328 8.59137 110 24 16
-4.50093 1.42607 8.6035 139 97 79
-4.43117 1.70479 10.4503 158 119 100
-1.23282 1.59898 9.39833 151 126 116
-1.19773 1.5843 9.35258 130 103 90
-0.725609 1.51119 8.78593 152 50 43
-0.305661 1.55192 8.89307 122 24 22
-0.0499638 1.5135 8.79836 162 144 137
0.200449 1.53108 8.84461 136 33 34
-0.218535 1.53221 8.83478 156 30 26
-0.192922 1.53384 8.81332 133 39 31
-0.0780395 1.52983 8.80697 180 158 152
0.0581886 1.56752 8.80138 118 104 100
-4.79912 1.40172 8.34406 108 31 35
-4.82804 1.42345 8.3402 98 28 32
-0.435887 1.56658 8.80159 125 114 112
-0.3188 1.56742 8.8447 130 28 27
-0.197825 1.56563 8.82751 141 39 38
-0.109052 1.57877 8.8278 145 126 119
0.211114 1.57227 8.84828 138 37 37
-0.734341 1.54495 8.80693 156 46 42
-0.422679 1.55765 8.76245 108 95 92
-0.551234 1.56677 8.74292 191 172 167
3.8092 1.86423 10.3476 152 124 114
-4.61465 1.50097 8.70486 142 92 67
-0.321886 1.59483 8.84011 134 25 26
-0.200267 1.60177 8.85679 152 56 54
0.220998 1.61808 8.89163 138 26 26
2.98832 1.81702 10.0232 134 98 86
-4.66678 1.50905 8.65209 132 60 29
-4.65473 1.51565 8.70586 138 70 35
-0.040066 1.57319 8.7209 122 106 100
-0.886916 1.66579 9.37433 150 69 58
-0.737854 1.58842 8.86727 154 46 42
-4.66946 1.49571 8.48452 121 54 17
-0.33424 1.62342 8.82512 134 24 25
0.209678 1.63433 8.86731 150 66 65
-4.67342 1.49636 8.45396 112 24 3
-0.731477 1.61373 8.84571 150 47 42
-0.746741 1.64837 8.94548 157 30 26
-0.564504 1.64373 8.91623 89 70 62
-0.34855 1.65725 8.84856 130 28 30
-0.19612 1.65733 8.86203 152 49 46
0.197973 1.67277 8.89096 136 25 29
-0.714486 1.65315 8.86561 148 44 40
0.0100752 1.643 8.75791 31 16 7
-0.0280063 1.67037 8.84363 52 32 26
-0.511194 1.65942 8.76282 96 75 68
0.176877 1.70326 8.90621 141 26 24
-4.80818 1.56591 8.5301 135 60 23
-0.720255 1.67844 8.89328 152 29 22
-4.90903 1.59728 8.6169 121 37 20
-0.538222 1.67317 8.71919 132 112 105
-0.451965 1.6799 8.82825 144 112 106
-0.097667 1.7339 8.91735 140 109 102
0.094413 1.69905 8.78391 144 118 112
-4.94173 1.6111 8.61125 122 42 34
-0.656076 1.71776 8.91348 136 70 64
-0.035247 1.7071 8.80917 134 116 112
0.0310719 1.71098 8.85746 136 119 113
-4.67373 1.64685 8.85527 149 118 85
-0.876634 1.80159 9.2999 162 88 76
-0.618358 1.72696 8.9072 144 98 92
0.106657 1.74917 8.83988 140 49 46
0.0530933 1.74576 8.85572 143 98 92
0.884996 1.93754 9.76716 158 139 128
1.0324 1.99809 10.1509 162 143 132
0.0823982 1.78485 8.90134 146 29 27
0.330133 1.82372 9.13091 151 82 76
-4.66586 1.71359 8.93842 128 85 68
0.321108 1.84377 9.08634 150 89 82
-4.97887 1.72512 8.7645 130 88 64
-4.69671 1.74906 8.95963 121 56 34
-0.696469 1.86804 9.03032 136 42 36
-4.97717 1.75631 8.76144 132 90 68
-4.66067 1.76903 8.92731 113 46 34
-4.04535 1.90986 9.72067 151 129 117
0.111409 1.88582 8.96532 95 39 33
0.143423 1.89554 9.03711 137 28 30
-5.00827 1.7943 8.8141 112 66 50
-0.651779 1.89495 8.98867 102 52 47
-4.76024 1.81984 8.85194 134 66 36
-4.729 1.81367 8.85142 131 52 36
-4.7004 1.81495 8.90341 114 18 17
-4.69239 1.83785 8.99097 124 60 50
-0.615321 1.91801 9.06731 124 46 42
-5.01333 1.82735 8.82933 112 59 50
-0.848861 1.94042 9.16631 153 70 58
0.0106945 1.93587 9.03367 141 57 50
0.0378675 1.93101 9.02058 130 51 41
-4.92239 1.81672 8.78689 120 27 14
-4.8769 1.83005 8.79888 142 38 14
-4.82779 1.8373 8.84717 136 40 16
-4.69085 1.87022 8.99097 131 74 62
0.288271 1.96835 9.11037 155 32 27
-0.8361 1.98824 9.33618 154 76 66
0.0519987 1.98173 9.13005 132 35 29
-0.379625 2.02074 9.28687 158 28 29
0.272303 1.99885 9.11665 146 42 39
-0.838951 2.09123 9.5412 126 70 59
-4.73176 1.96407 9.0483 107 32 18
-0.769328 2.06324 9.35292 130 38 34
0.302572 2.0152 9.11257 160 118 106
-4.71161 1.97069 9.12744 128 77 64
-5.02948 1.90151 8.881 135 78 70
-0.496036 2.07519 9.28355 137 74 73
-0.413192 2.06801 9.26813 112 24 22
-0.207293 2.12241 9.50592 120 31 27
-0.0984545 2.11615 9.50919 145 59 56
-5.04638 1.9019 8.83312 152 125 114
-0.762177 2.08901 9.3503 86 42 36
-0.661817 2.0894 9.35061 132 92 86
-0.632329 2.09397 9.36905 182 140 135
-0.583525 2.10396 9.36443 108 74 73
-0.537898 2.10169 9.34759 161 136 136
-0.146493 2.12698 9.46381 124 74 72
-5.05393 1.91026 8.72055 104 36 28
-4.72853 1.98905 9.0125 118 40 19
-4.62608 1.99102 9.04206 140 94 80
-0.400672 2.11035 9.3369 56 21 21
-0.275138 2.15518 9.50781 49 17 16
-0.229764 2.15341 9.42574 49 16 14
-0.182517 2.16892 9.4724 100 56 57
-4.85935 2.01101 9.03102 136 59 27
-0.863568 2.1692 9.51474 130 96 87
-4.61475 2.01438 9.06087 135 81 70
-0.734922 2.15577 9.45591 82 52 44
-0.41771 2.1552 9.35812 64 30 30
-0.288431 2.16011 9.32142 48 18 16
-4.93293 1.98938 8.90936 113 24 12
-4.7618 2.01968 8.97073 130 55 22
-4.74251 2.0253 9.0215 115 27 8
-0.889623 2.20987 9.56959 149 118 108
-0.232372 2.19292 9.41804 53 22 20
-4.6057 2.06647 9.09745 128 70 56
-0.780277 2.19703 9.62582 68 30 23
-5.05451 1.98667 8.74662 121 68 56
-0.423557 2.17861 9.36113 52 20 18
-0.190719 2.20872 9.42803 109 71 72
-4.92875 2.03825 8.99911 132 58 18
-4.73681 2.04364 8.97608 122 16 12
-0.876998 2.23917 9.51291 153 123 114
-0.851489 2.23539 9.5168 130 98 88
-0.606257 2.18298 9.30544 123 96 92
-0.511979 2.17971 9.30711 108 80 82
-4.75705 2.04272 8.94501 120 26 8
-0.683677 2.19763 9.38752 67 30 22
-0.545724 2.18895 9.32148 102 78 76
-4.87566 2.04849 8.95196 140 64 26
-0.213197 2.2368 9.37392 130 96 94
-4.93325 2.07642 9.00699 128 40 14
-0.830609 2.24029 9.42081 138 106 99
-5.03481 2.00792 8.70523 105 40 30
-4.95285 2.08045 8.98834 117 16 8
-4.78353 2.06148 8.94455 121 12 8
-4.85782 2.06255 8.93313 134 43 18
-4.80374 2.06454 8.9299 127 26 12
-4.94542 2.02498 8.79628 82 13 8
-0.786602 2.26813 9.39728 99 68 58
-0.478645 2.24051 9.34213 60 27 26
-5.07326 2.05088 8.74088 102 26 13
-5.12445 2.1119 8.9702 124 74 64
-4.98846 2.10292 8.98644 96 11 9
-0.776436 2.27349 9.33695 128 100 91
-0.754497 2.30951 9.39552 136 106 100
-0.26291 2.29689 9.32547 154 124 122
-5.09289 2.08505 8.74981 114 47 20
-5.12121 2.19176 9.05696 104 39 36
-0.717994 2.3164 9.38076 142 112 107
-0.699192 2.35393 9.49011 127 97 92
-0.606874 2.33062 9.34157 104 74 68
-5.08765 2.1289 8.81562 107 23 14
-5.01984 2.18428 8.90523 88 17 16
-0.603865 2.38111 9.46366 154 128 124
-0.542627 2.36454 9.31491 162 136 134
-5.07204 2.16323 8.74209 112 24 10
-4.98214 2.19617 8.87551 86 10 12
-5.07133 2.18371 8.74382 118 15 12
-4.35289 2.36284 9.20139 150 128 117
-4.4103 2.34106 9.00015 136 98 84
-4.37577 2.37831 9.12179 149 122 111
-0.660291 2.54183 9.55253 176 148 146
-4.40385 2.34376 8.91518 116 28 24
-4.36095 2.36122 8.95002 146 122 111
-4.82923 2.32192 8.74995 80 10 10
-4.36007 2.36189 8.88183 158 130 117
-4.54852 2.44536 8.82516 142 70 70
-4.67523 2.48872 8.73448 130 62 61
-4.71955 2.49192 8.70278 116 68 64
-4.69673 2.507 8.69243 148 114 106
-4.86629 2.56236 8.48366 140 62 61
-4.98405 2.62169 8.5013 143 76 72
-0.709452 2.74294 8.70421 170 147 142
-0.685422 3.04636 9.54597 178 155 150
-0.685058 3.07682 9.55148 169 146 142
3.10602 -2.97652 9.2378 190 134 107
1.88061 -2.01342 9.87577 118 102 82
1.81032 -1.97976 9.77973 114 100 78
1.95494 -1.87625 9.20678 114 98 83
-2.18154 -2.15227 10.5127 58 28 18
1.87421 -1.9312 9.83457 124 98 69
1.94234 -1.86097 9.54448 84 71 57
1.86593 -1.771 9.24451 82 66 55
-2.33997 -1.97932 10.6247 56 33 19
-1.97061 -1.94988 10.3303 162 101 78
-2.38561 -1.95837 10.7533 98 85 50
2.09189 -1.61358 9.15894 118 80 61
-3.98082 -1.70558 9.69205 40 18 10
-2.28118 -1.86055 10.5636 40 13 6
-4.77586 -1.71017 9.93874 138 128 84
-2.27941 -1.84045 10.6678 82 46 26
-1.5643 -1.69991 10.3738 76 40 26
-3.6635 -1.68684 10.1586 152 136 88
-3.83616 -1.4978 9.85177 170 114 94
-3.77149 -1.49136 9.91309 144 90 68
-4.3484 -1.37441 9.6282 79 42 28
-4.0922 -1.37512 9.57583 126 74 58
-3.6459 -1.38034 9.86633 120 58 40
-1.33374 -1.46875 10.513 78 38 22
-3.57835 -1.32186 9.99325 148 130 86
-1.22138 -1.36292 10.4482 47 19 6
-4.16779 -1.21957 9.58354 40 21 16
3.05503 -2.02497 16.0933 146 144 96
-4.42845 -1.14613 9.75236 70 36 26
-3.73686 -1.06959 10.1456 82 42 22
-2.04675 -1.08328 10.4505 167 121 88
3.17268 -1.75178 16.0685 143 142 93
-2.05253 -1.05554 10.4789 160 113 80
3.30683 -1.72578 16.3582 142 140 92
-2.57755 -1.17474 11.68 120 94 54
-3.82914 -0.957098 10.1135 121 73 50
2.9237 -0.933784 10.45 112 91 65
-2.14463 -0.929242 10.6558 176 126 96
-2.76311 -1.08051 11.7535 96 69 32
2.87992 -0.843637 10.2414 100 79 64
-1.46651 -0.885441 10.4717 70 29 18
-4.52747 -0.858671 9.9809 102 56 38
-4.47308 -0.893508 10.6452 78 42 34
3.06303 -0.750023 10.2044 150 120 108
-2.0935 -0.817193 10.394 148 100 70
-3.80668 -0.792107 10.0678 132 85 65
3.03573 -0.707366 10.1674 166 136 124
-4.22824 -0.742737 10.0145 90 44 32
-3.70899 -0.736049 9.96143 122 76 56
-4.30437 -0.670224 9.72687 57 22 14
-4.11148 -0.714982 9.89477 131 76 53
-2.07357 -0.737816 10.3191 140 92 66
-3.71396 -0.71319 10.1329 128 84 64
-4.99671 -0.459739 7.44553 95 96 121
-2.0211 -0.663846 10.1732 131 84 60
-2.8661 -0.650799 10.1039 85 53 20
-4.29452 -0.638405 10.038 55 22 16
-1.53144 -0.649592 10.5312 92 50 38
3.07434 -0.521526 9.76937 52 44 42
2.80345 -0.589128 10.8414 94 96 62
-2.29828 -0.590183 9.99072 126 86 57
-3.58498 -0.54653 10.0927 114 70 50
-2.89413 -0.496774 9.42691 118 78 44
-2.95886 -0.489352 9.33123 127 82 50
-4.21214 -0.487725 10.0412 100 50 33
-2.01784 -0.49786 10.0346 110 66 42
-1.58594 -0.516765 10.5293 86 46 32
-2.7419 -0.439503 9.31462 127 90 64
-2.08778 -0.489099 10.0281 122 76 48
2.21677 -0.464559 10.4559 57 20 10
-5.04762 -0.31398 7.59821 102 88 90
-4.33712 -0.480619 10.0349 62 24 15
-3.15221 -0.383304 9.43506 98 56 30
-4.46824 -0.405434 9.87534 85 41 26
-5.10627 -0.264487 7.69438 155 142 126
-4.99109 -0.254478 7.66892 22 20 56
-1.63452 -0.394295 10.5609 80 38 28
-2.28439 -0.330253 9.7801 110 63 46
-5.08609 -0.247329 7.7336 76 36 42
-2.27756 -0.303193 9.8084 136 87 72
-4.92666 -0.206226 7.70283 97 16 26
-4.89856 -0.209695 7.68763 101 18 24
-5.06746 -0.196962 7.70392 98 16 20
-5.05017 -0.194984 7.71707 96 14 28
-4.99308 -0.196449 7.71442 84 14 30
-3.24332 -0.275467 9.65633 104 58 34
-3.97597 -0.28998 9.71352 152 106 84
2.88642 -0.268111 10.7041 98 80 60
-5.19051 -0.183019 7.64373 158 116 93
-2.22296 -0.253909 9.74959 126 74 58
-2.0759 -0.252444 9.93505 91 40 22
-1.55304 -0.260654 10.728 132 91 75
3.31741 -0.141003 9.63067 78 54 51
-2.46563 -0.18569 9.58257 87 34 19
-2.40794 -0.177266 9.57994 88 38 25
-2.07947 -0.191533 9.93231 94 44 26
2.87568 -0.124254 9.68499 136 94 70
-4.12573 -0.215969 9.97571 85 40 26
-2.46629 -0.151929 9.52846 94 40 22
-2.40346 -0.137727 9.53654 178 121 106
-5.30455 -0.0811898 7.65881 166 139 120
2.87049 -0.150686 10.8325 118 94 74
3.11416 -0.0738371 9.62484 49 22 14
-4.19464 -0.158136 10.1868 46 13 8
-2.09454 -0.13165 9.95471 83 32 16
-2.81459 -0.0868087 9.51113 72 26 14
-1.56028 -0.0853274 10.6439 160 124 108
-2.82581 -0.0797836 9.41459 76 31 16
-1.54838 -0.0649454 10.7871 159 122 105
2.11622 -0.0515059 10.6265 124 96 71
-5.10689 0.00997431 7.64469 157 26 32
2.07918 0.0329122 10.8068 119 98 77
-5.11484 0.0273287 7.591 160 33 37
-3.48878 0.0059731 9.54101 134 84 62
-5.06257 0.0360653 7.62401 161 32 33
-5.04717 0.0400408 7.65693 152 20 24
-3.12339 0.0299225 9.2281 182 122 100
-4.68584 0.0743967 7.68413 126 53 54
-4.66736 0.0790748 7.74625 125 44 47
-5.25755 0.0877506 7.59671 150 73 58
-1.23991 0.0758558 11.1368 160 123 98
-3.16782 0.105875 9.69686 168 111 90
-4.7166 0.112011 7.70373 140 94 98
-3.1827 0.137073 9.86788 162 108 90
-4.74946 0.128759 7.68148 140 78 81
2.04928 0.194961 11.1482 35 22 10
-4.14213 0.120009 10.1656 146 99 76
-4.67881 0.152543 7.72087 124 103 103
-4.13527 0.143868 10.3682 156 106 79
-3.39935 0.164239 9.62911 90 39 22
-4.66267 0.176074 7.64298 72 52 49
-4.9593 0.1853 7.57844 106 12 22
2.1612 0.268222 10.9452 111 72 48
-4.95651 0.187551 7.50982 112 10 22
-4.95107 0.1875 7.60861 105 12 22
-4.9369 0.191661 7.63098 111 13 24
-4.72392 0.193751 7.69245 158 144 144
-4.65648 0.209464 7.77453 118 34 32
-5.0402 0.208428 7.61189 123 12 18
2.61194 0.298399 10.7262 114 89 68
-4.88706 0.209546 7.65652 114 11 20
-5.26799 0.232123 7.72369 148 83 72
-5.02504 0.228229 7.53746 114 18 22
-3.36777 0.258254 9.83458 126 81 64
-4.75155 0.233172 7.68016 136 72 74
-4.30731 0.255021 8.78409 126 84 40
-2.65917 0.263785 11.1141 94 42 26
-5.17985 0.247697 7.56682 155 90 79
-5.14688 0.243405 7.57614 158 64 62
-5.01479 0.244985 7.5001 98 20 28
-4.69141 0.245511 7.77277 110 27 26
-3.68309 0.275856 10.3254 168 120 96
-4.80991 0.256177 7.57488 80 14 29
-4.69419 0.254151 7.72144 115 28 28
-4.99742 0.271341 7.43948 90 20 34
-3.96114 0.313405 10.3491 192 146 122
3.62356 0.390551 10.1501 132 104 79
-3.65916 0.349563 10.3324 147 101 81
3.73634 0.410135 9.96506 166 138 122
-4.60491 0.309535 8.51701 146 120 80
-4.43155 0.320199 8.58488 161 141 111
3.2016 0.440497 9.85531 136 100 78
-4.49162 0.350085 8.73194 137 103 48
-1.41008 0.446729 10.8693 143 98 80
-4.09364 0.387975 8.71274 156 30 36
-4.01841 0.382382 8.71591 150 31 35
-4.99899 0.344569 7.43964 94 20 38
-1.40413 0.493706 10.9168 139 95 75
3.8814 0.525142 10.2751 136 116 96
-0.707094 0.622681 11.6123 148 124 97
1.85382 0.637429 11.6727 134 120 92
3.42897 0.627345 10.1622 134 114 98
3.51242 0.60699 9.98589 182 162 148
-5.32323 0.432354 7.83848 162 125 105
3.32035 0.666407 10.1137 184 160 149
-5.31218 0.469146 7.88308 146 70 60
2.8807 0.681279 10.3176 123 94 78
-5.30093 0.488761 7.90742 141 44 40
-3.7952 0.64379 10.4935 148 102 84
-4.91256 0.558544 7.95717 108 7 10
1.80526 0.794672 11.0902 119 84 65
-5.49894 0.55542 7.95784 164 140 121
-5.49193 0.552553 7.99288 154 104 84
-4.89783 0.570386 7.94955 83 2 3
-2.00554 0.746472 10.715 166 110 84
-5.22386 0.596885 7.98513 96 2 2
-4.86276 0.588546 7.93024 63 1 1
-0.36179 0.70192 9.06531 121 84 64
-4.1924 0.672037 8.95757 161 122 96
-5.44958 0.597229 7.89597 144 66 46
-5.22726 0.600964 7.86009 108 9 7
1.93562 0.884868 10.7331 153 109 92
-2.01506 0.839128 10.6695 162 106 82
-5.4742 0.652631 7.94917 154 106 55
2.4972 0.892182 10.0383 153 102 78
2.0434 0.973182 10.895 152 74 52
-4.62959 0.738694 8.45367 106 7 10
-2.01094 0.898827 10.7333 164 110 86
3.00479 0.925213 9.74518 100 57 38
-4.84258 0.70933 7.95065 93 8 10
-4.81847 0.712398 7.98307 110 11 12
-0.262211 0.846692 9.02503 94 48 31
1.82434 1.04509 10.9745 94 70 52
1.90167 1.02751 10.7349 102 18 12
1.84195 1.04009 10.6456 88 35 28
-3.93398 0.995806 10.4048 152 104 88
2.11217 1.08372 10.3646 110 82 78
2.49299 1.04247 10.0322 122 76 60
-3.61223 1.02567 10.5118 138 86 68
-0.699593 0.954714 8.77175 35 7 1
-0.994806 1.14156 11.1834 126 79 51
-0.973177 1.1475 11.1281 118 74 44
-0.934267 1.14748 11.1632 116 72 43
-1.12888 1.16996 11.1516 102 58 34
-1.05248 1.15957 11.1162 118 72 44
2.51349 1.14038 10.0292 131 90 72
-1.12922 1.20338 11.1544 100 58 32
-5.23384 0.843463 7.78906 141 50 22
-4.81246 0.877736 8.0291 78 70 79
-1.17524 1.21351 10.9854 94 52 28
-5.46323 0.848543 7.71252 173 120 54
-0.653087 1.03567 8.83122 58 10 6
-5.08625 0.875363 7.78675 106 4 6
-5.0686 0.8776 7.7901 118 10 12
3.75441 1.22164 9.99047 179 146 130
-3.08971 1.21537 10.6157 106 58 34
-5.2081 0.911861 7.8517 100 6 4
-5.17638 0.910485 7.73872 102 12 1
-2.42708 1.25639 10.9103 144 88 62
-2.13691 1.26679 10.762 158 105 84
2.59732 1.29841 10.7184 194 170 163
-5.20804 0.946291 7.79769 140 62 23
-4.97777 0.97706 7.97486 82 72 74
-5.42942 0.916614 7.6826 157 104 36
-2.20393 1.34804 11.0452 158 103 73
2.71436 1.36678 10.8497 226 206 200
-4.70958 1.01777 8.26661 68 60 72
-5.47178 0.949781 7.79969 144 92 30
-4.28028 1.24412 10.4057 192 146 124
-1.08564 1.36516 10.8842 99 62 40
-1.04697 1.3707 10.9621 106 68 47
-1.00069 1.36563 11.0168 122 84 64
-1.2105 1.38241 10.9109 110 76 51
2.86217 1.35097 10.0455 125 115 106
-2.15151 1.38137 10.8641 124 72 40
-4.86182 1.04495 8.05679 93 89 103
-4.9644 1.05871 7.9824 110 104 111
-5.50285 1.14799 8.26432 142 85 54
2.9693 1.48411 9.92512 132 72 56
-5.46577 1.10783 7.8399 161 124 86
-4.36386 1.46172 10.53 183 132 110
-4.9337 1.13628 8.00874 94 86 88
-4.80692 1.18444 8.24796 88 72 72
-4.63825 1.20423 8.46498 108 31 34
-4.84867 1.19424 8.25885 102 88 90
-0.10644 1.30631 8.60506 82 68 52
-4.8598 1.19608 8.21226 104 91 95
-1.26661 1.40517 9.54336 134 108 95
2.79458 1.55192 9.95905 140 70 56
-1.12709 1.42576 9.45434 100 78 66
-0.45742 1.34288 8.66448 126 16 13
-4.89326 1.22869 8.22694 86 59 64
-0.869675 1.41152 9.02792 135 106 97
-0.894559 1.42126 8.96409 144 84 78
-4.91152 1.24397 8.14182 111 26 26
-4.67132 1.30177 8.43035 101 52 53
-2.8793 1.62424 10.549 120 89 78
2.94625 1.64105 9.96355 100 66 60
3.69444 1.71153 10.3161 142 114 103
-1.17158 1.5184 9.45388 107 83 72
-1.10762 1.5179 9.43281 138 118 103
-0.246217 1.43031 8.66845 66 48 36
-4.30012 1.61607 10.4057 190 138 111
-0.135562 1.45835 8.74703 86 64 54
-4.88852 1.34525 8.29153 80 55 57
-4.86246 1.33433 8.34585 50 34 46
-1.24941 1.55091 9.43779 126 107 98
-0.345029 1.47967 8.84365 126 62 57
-0.184176 1.46717 8.7532 104 81 66
-4.90085 1.37026 8.26019 97 45 51
-0.0687497 1.51038 8.86332 128 110 102
-5.00936 1.35063 8.10341 124 18 22
-4.92657 1.39811 8.32475 95 45 51
-5.00245 1.36955 8.09922 108 39 42
-5.05562 1.38836 8.11478 81 44 52
-0.412231 1.54622 8.67858 142 125 121
-4.90837 1.39785 8.21674 118 22 26
-0.892076 1.67369 9.52488 157 90 74
-0.662914 1.55615 8.73466 149 132 123
-4.68266 1.45822 8.53499 112 31 20
-5.12653 1.4038 8.08021 100 40 42
-4.88821 1.42424 8.21648 112 24 28
-5.05387 1.39206 8.0631 68 47 56
-4.66831 1.57941 8.84911 154 114 89
-0.16135 1.64393 8.96415 142 54 50
3.59426 1.92455 10.3347 146 118 106
-5.01583 1.4282 8.05008 40 21 34
-0.0246318 1.63691 8.79679 113 94 88
-5.1156 1.51176 8.11263 90 41 46
-5.09474 1.50323 8.10917 78 37 41
-5.06883 1.49425 8.1125 84 45 54
-5.04783 1.53476 8.18667 84 18 18
-5.11647 1.50408 8.06027 105 30 34
-4.95844 1.62268 8.57085 138 74 64
-0.583805 1.74131 8.9196 135 66 60
-5.06023 1.57871 8.25855 70 3 4
-4.98318 1.65844 8.62434 163 134 120
-0.043687 1.74983 8.81512 132 59 53
-4.99771 1.63458 8.47561 136 72 55
-4.02659 1.89661 9.83892 152 128 116
-5.02345 1.63591 8.33403 134 56 28
-4.65699 1.74002 8.9318 123 80 64
-4.03449 1.92112 9.70398 154 131 120
-5.1026 1.65433 8.27369 127 50 17
-4.65144 1.7682 8.83008 111 36 20
-4.95662 1.80352 8.78853 88 18 6
-4.67828 1.87508 9.04738 154 119 109
0.0658205 1.92713 9.0323 110 42 34
-4.87709 1.81725 8.74778 124 22 8
-4.84718 1.82571 8.79856 143 40 16
-4.70863 1.87847 8.97518 118 24 18
-4.69149 1.90477 9.00829 142 81 71
0.301007 2.00057 9.11963 150 86 76
-0.203734 2.06907 9.42732 152 30 29
0.103817 2.04496 9.20077 152 88 82
-0.469011 2.07124 9.27625 122 32 32
-0.85964 2.11935 9.56991 123 90 81
-5.06725 1.89154 8.60789 130 51 25
-5.05804 1.89418 8.54658 116 28 13
-5.33711 1.90012 8.51764 161 115 78
-5.07963 1.90578 8.54239 138 58 34
-5.16299 1.95205 8.62608 135 45 22
-4.90175 1.99356 8.91759 124 39 20
-0.714121 2.15916 9.3494 82 50 42
-0.482576 2.18266 9.34439 103 75 78
-0.642414 2.17219 9.29504 132 104 99
-0.574793 2.18675 9.31411 108 80 78
-5.13742 1.93017 8.43624 148 46 24
-5.19507 1.95575 8.50843 148 42 22
-5.27854 1.97885 8.56899 153 40 26
-5.21802 1.95884 8.49759 160 50 36
-4.82829 2.0568 8.93557 136 41 20
-5.35502 1.9952 8.62923 146 33 25
-4.86718 2.0714 8.90667 119 16 4
-5.35856 2.02501 8.61346 160 65 54
-4.93605 2.10842 8.91154 94 8 8
-5.45904 2.10492 8.75689 146 86 73
-5.28325 2.09623 8.59247 166 58 40
-5.19667 2.1101 8.64909 152 50 20
-5.17376 2.11333 8.65514 160 74 39
-5.13881 2.10261 8.64607 150 69 32
-5.19552 2.10084 8.58854 170 81 36
-5.06005 2.13644 8.71133 123 41 22
-5.10514 2.14668 8.68539 142 78 34
-5.27852 2.15486 8.62849 164 72 32
-5.24194 2.17056 8.61456 180 110 45
-5.17366 2.19851 8.68674 164 101 42
-5.12272 2.19843 8.66075 147 58 30
-5.11839 2.19385 8.60647 130 23 8
-4.32739 2.36408 9.22893 152 129 119
-5.21649 2.21143 8.65032 140 38 13
-5.14875 2.20048 8.60876 142 38 19
-4.37535 2.35519 8.92642 140 111 100
-5.49577 2.39897 8.97427 166 87 81
-5.47931 2.42692 8.96452 172 96 91
-4.51752 2.43466 8.84497 150 86 84
-4.68539 2.45307 8.69118 107 16 20
-4.68025 2.47394 8.67345 122 66 64
-5.13389 2.58752 8.62537 164 58 58
-5.00381 2.5845 8.47141 132 22 25
-1.95661 -1.97148 10.314 160 102 82
2.75138 -1.50964 8.60817 113 88 82
2.88165 -1.50924 8.59865 126 105 99
-2.33034 -1.90649 10.6619 42 17 8
-4.36071 -1.67981 9.54711 114 73 46
2.85323 -1.40084 8.59991 126 104 98
-4.47997 -1.48012 9.64604 92 54 36
0.129126 -2.48326 16.0869 143 142 94
-3.99962 -1.26682 9.77362 200 135 115
-4.52284 -1.21332 9.69591 69 34 20
-4.39702 -1.12735 9.7384 68 34 23
2.61087 -1.18321 10.5817 99 70 42
-4.55183 -1.06773 9.73859 77 44 30
-4.12153 -0.977684 9.93482 38 10 4
-4.46187 -0.882703 9.92232 58 22 12
-4.28366 -0.877444 10.0328 52 19 13
3.03522 -0.770715 9.65545 142 45 22
-2.13307 -0.86877 10.4253 163 114 83
-3.80068 -0.803598 10.0276 130 82 62
-3.76966 -0.797117 9.98345 130 82 61
3.0146 -0.683449 9.44903 157 62 36
-4.13299 -0.747989 10.0707 126 71 46
-4.75408 -0.796089 10.1037 133 112 90
-1.90757 -0.770621 10.2686 195 150 126
-4.3206 -0.725523 9.89382 37 10 4
-1.07329 -0.684087 10.6869 120 102 76
-1.39743 -0.593663 10.4933 58 24 14
-2.50844 -0.526026 9.73723 146 102 80
-2.86206 -0.490525 9.44795 118 80 47
-1.44026 -0.564117 10.5549 34 10 4
-2.03518 -0.529809 10.031 119 75 48
-3.11547 -0.443061 9.40245 95 50 26
-2.07099 -0.420332 9.74139 136 88 63
-4.46341 -0.468462 10.2455 88 44 28
-4.2503 -0.359406 9.82335 60 24 16
-5.10259 -0.263187 7.72914 130 118 112
3.49251 -0.254559 9.54475 158 122 100
-4.96304 -0.200061 7.70686 86 14 24
-5.20253 -0.199755 7.71215 157 121 96
-5.0185 -0.191604 7.71036 88 14 24
-2.37934 -0.176948 9.56095 114 61 48
3.13751 -0.015355 9.79769 170 140 123
-3.21113 -0.0717535 9.45438 178 117 96
-2.78538 -0.059813 9.50968 74 27 12
3.04707 -0.00663169 11.4847 97 83 58
2.08063 -0.0403532 11.6425 130 114 86
-2.77316 0.040526 9.54658 98 52 36
-4.66916 0.0656919 7.68206 120 31 34
-4.65547 0.0747242 7.77044 124 16 16
-2.79713 0.0621021 9.60527 96 52 38
-4.0729 0.0364702 10.2231 88 39 24
-1.99835 0.0990766 10.7024 174 126 106
-5.21502 0.106548 7.64012 154 62 60
-5.19345 0.114066 7.6644 139 22 22
-5.18539 0.149669 7.65453 145 46 45
-4.72686 0.164598 7.67764 158 144 144
-5.25793 0.182023 7.68216 182 152 145
-3.7931 0.185634 10.0533 154 106 86
-3.32125 0.198774 9.73823 102 54 36
3.58619 0.281995 10.1111 74 54 37
3.69957 0.291077 10.0296 140 110 85
-5.29785 0.193384 7.71427 153 107 96
2.70265 0.319177 10.1562 70 48 36
-4.69547 0.232052 7.73161 150 123 124
-5.29464 0.278322 7.73473 150 90 78
2.67181 0.407404 10.2506 16 10 9
2.21978 0.431367 10.9732 146 116 100
-4.8179 0.369447 7.59023 72 14 28
-5.02404 0.377392 7.48566 120 18 23
3.3263 0.5782 9.97857 148 124 110
-2.66845 0.549629 10.9123 107 54 34
3.27709 0.682756 10.0537 166 138 126
2.0365 0.682862 10.5419 162 132 122
-5.33956 0.484944 7.95564 170 126 108
-5.42594 0.537982 7.97919 128 60 46
-4.8889 0.543489 7.97153 104 8 10
-4.81385 0.587439 7.85004 74 4 6
-2.01491 0.810306 10.7661 159 103 80
-2.66878 0.946588 11.0021 108 53 38
-4.81865 0.700063 7.93769 96 5 6
-0.332375 0.852893 8.96035 106 52 34
2.4813 1.01644 10.0511 146 110 93
-3.61969 0.962283 10.4593 138 90 73
-4.82731 0.772632 7.9791 102 41 44
-4.86947 0.801543 7.92043 107 28 26
1.88505 1.24301 11.8466 111 94 76
1.92597 1.24177 11.7529 88 66 42
2.57909 1.13373 10.3542 134 100 90
2.09131 1.13374 10.3064 100 72 70
-4.90901 0.866363 7.93707 88 65 68
1.87579 1.20779 10.7124 85 79 64
-0.605856 1.00501 8.80607 48 16 12
-4.81327 0.905627 8.03264 118 110 118
3.87172 1.22501 10.0193 140 70 54
-4.83668 0.930147 8.05546 106 100 107
-4.91577 0.923374 7.8916 106 96 102
-3.98339 1.215 10.4571 148 100 86
-2.06452 1.32188 10.8399 122 70 46
1.79688 1.51426 11.9434 140 123 107
-2.25297 1.41394 11.3534 113 61 31
-2.58968 1.35388 10.8182 112 62 38
-1.24059 1.39354 10.8375 115 82 58
-5.41727 1.00436 7.69397 158 106 44
-2.06377 1.39647 10.7691 148 94 66
3.33275 1.38107 9.89298 161 123 116
-5.51073 1.02552 7.776 144 104 58
-2.19691 1.41996 10.7116 182 130 102
2.62909 1.43428 10.1887 120 70 72
-2.86524 1.44405 10.7937 78 38 28
-4.54355 1.22623 8.48214 126 20 23
-4.89659 1.23644 8.10582 105 47 48
-0.337036 1.4671 8.82415 116 27 24
-4.86533 1.36347 8.29579 25 15 32
-4.84343 1.42552 8.32317 82 40 46
-4.87904 1.43197 8.33258 84 45 52
-5.10772 1.40342 8.08137 82 44 48
3.68695 1.92972 10.4588 136 104 92
-4.67079 1.50626 8.60377 146 82 41
2.53215 2.02683 11.0276 181 158 152
-5.02109 1.45648 8.16974 103 41 40
-5.02284 1.52401 8.22587 103 11 9
-4.37828 1.86829 10.0981 152 130 116
-5.21811 1.64991 8.16297 132 32 22
-0.486967 2.03019 9.41178 144 42 42
-0.886109 2.1451 9.54473 140 109 102
-0.685759 2.16479 9.35918 100 67 60
-0.453428 2.17288 9.34905 76 42 42
-0.654525 2.19303 9.37095 90 56 50
-0.338525 2.30053 9.28466 136 110 112
-0.563883 2.32474 9.35274 77 44 40
-5.19678 2.21405 8.65055 149 50 22
3.0653 -3.09664 9.37938 138 122 76
3.36792 -3.01899 9.34002 120 90 52
3.11749 -2.99097 9.32562 138 86 54
3.02623 -2.9611 9.23915 106 60 26
3.27453 -2.94054 9.18178 126 92 61
3.45317 -3.06198 9.57287 128 86 56
3.34554 -2.94389 9.31266 109 76 40
2.89474 -2.92822 9.30947 140 124 82
3.07562 -3.03313 9.60466 142 128 80
3.16186 -2.98591 9.55945 116 48 22
3.40204 -2.90956 9.34005 120 110 67
3.32379 -2.90347 9.37033 87 54 35
2.86551 -2.76908 9.26199 134 81 58
2.78837 -2.84084 9.47937 146 130 94
2.17603 -3.16354 10.5343 155 151 99
2.75993 -2.8309 9.5644 124 108 72
2.15677 -3.16843 10.5879 156 150 98
2.15413 -3.07647 10.3994 100 81 40
2.18197 -3.17599 10.7322 158 150 97
2.15159 -3.13254 10.5747 126 109 62
1.18582 -4.45652 14.4259 140 136 86
4.54187 -3.24193 11.0505 45 36 20
2.99475 -2.30666 8.23733 44 38 23
3.53111 -2.54907 9.09837 40 40 18
2.05113 -2.81594 10.2551 158 138 114
4.15398 -2.70248 9.85055 146 126 96
1.86653 -2.77771 10.1852 136 122 76
2.16971 -2.8076 10.2823 147 130 112
1.73118 -2.61731 9.81328 138 124 76
1.80202 -2.6423 10.0023 126 110 64
2.88354 -2.15384 8.4262 82 54 32
1.9312 -2.37494 9.27861 129 106 87
2.87735 -2.00561 8.11546 16 16 7
1.94652 -2.45546 9.70349 118 88 60
1.98192 -2.4589 9.71917 112 81 54
2.01002 -2.3843 9.48198 106 66 36
3.03116 -2.15052 8.70651 74 48 30
3.08781 -2.10228 8.60631 38 18 6
3.00852 -2.05605 8.37824 94 68 46
3.00653 -2.03504 8.31299 82 58 40
1.77867 -2.46013 9.79575 102 64 28
3.12802 -2.07166 8.46486 52 38 27
3.07148 -2.12255 8.70955 60 35 16
2.91992 -2.06179 8.48286 84 52 30
1.82211 -2.43916 9.80842 87 50 13
1.94654 -2.31389 9.36387 104 65 30
3.03543 -2.08978 8.70009 106 65 32
1.7902 -2.20118 9.07713 112 81 52
1.83135 -2.20583 9.08209 104 68 37
2.52496 -2.05902 8.6728 120 10 5
1.89873 -2.30994 9.63888 130 106 82
2.41168 -1.99944 8.54552 119 34 20
2.59977 -2.05739 8.73838 125 50 29
2.37723 -1.88832 8.12353 122 22 14
1.8159 -2.40033 10.0101 150 140 92
1.72009 -2.28693 9.56719 126 87 52
2.2766 -1.83445 7.9665 122 66 42
2.5099 -1.89298 8.21324 114 19 10
1.80421 -2.35742 9.94558 110 92 48
2.42157 -1.96727 8.53024 134 86 58
1.98464 -1.80779 7.94393 122 28 15
2.24806 -1.98216 8.63786 114 17 7
2.30282 -2.00003 8.70221 117 36 20
2.50826 -1.85489 8.16166 122 70 42
2.25249 -2.11684 9.13426 111 18 10
2.12441 -2.05563 8.94547 122 65 42
2.98217 -1.79198 8.03253 114 75 60
2.47069 -1.92595 8.56215 126 79 49
1.98465 -2.02008 9.015 123 86 64
2.47142 -1.8991 8.55863 148 110 89
3.04346 -1.7697 8.12313 149 120 111
-1.99504 -2.52916 11.0159 150 146 102
-1.87171 -2.29277 10.1143 70 56 26
3.22195 -1.85654 8.51884 252 241 237
3.12769 -1.80778 8.31098 213 194 188
-2.04387 -2.45972 10.8238 132 123 79
-2.1037 -2.40744 10.6737 150 144 99
-2.07426 -2.42708 10.7339 143 135 90
2.68788 -1.84563 8.58123 156 122 108
3.31448 -1.80767 8.42958 158 128 115
1.88218 -2.14821 9.82161 120 106 84
2.04044 -2.33133 10.6233 126 102 58
2.02693 -1.99073 9.22919 155 128 115
1.94896 -1.99446 9.34916 156 130 114
1.9644 -1.9247 9.07593 159 132 120
2.08817 -1.87896 8.92717 112 68 44
2.87645 -1.75092 8.46223 200 174 164
1.88379 -2.12442 10.1059 132 123 88
1.79196 -2.04542 9.71454 91 87 66
1.7698 -1.98665 9.55321 110 98 76
-1.29484 -3.01825 13.6969 152 147 96
2.72724 -1.54507 7.73007 164 144 136
1.88926 -2.09803 10.1223 128 122 86
2.92892 -1.6913 8.5511 144 122 116
2.9513 -1.61661 8.19822 160 142 135
2.97263 -1.68529 8.49794 121 102 96
1.89469 -2.06382 10.1184 145 137 100
2.26236 -1.71083 8.6442 159 128 114
-4.14234 -2.09016 10.1162 151 146 96
-4.12025 -2.10933 10.2469 150 146 92
1.94455 -2.05567 10.1796 128 118 86
1.94214 -1.95552 9.75481 131 114 98
-4.18934 -2.09745 10.2801 126 116 76
-4.15462 -2.09297 10.2619 140 131 86
2.02857 -1.85199 9.43367 138 117 105
-4.00823 -1.98316 9.81453 131 120 76
3.05013 -1.73447 8.9943 138 114 102
-4.02872 -2.02454 10.0404 126 116 70
2.75575 -1.58787 8.39654 120 98 88
-4.06196 -2.06254 10.3056 128 120 72
1.95156 -2.04731 10.2847 137 130 88
2.32579 -1.64407 8.72245 170 132 122
2.81339 -1.61657 8.60145 108 81 72
3.12066 -1.58679 8.46904 198 184 179
2.05449 -2.0645 10.5043 117 100 63
2.01328 -1.90815 9.85151 148 125 108
3.18751 -1.59511 8.54234 210 194 188
3.09696 -1.54308 8.34129 160 140 134
1.95328 -1.76453 9.33767 102 84 76
2.38469 -1.65665 8.8786 138 42 43
-3.96845 -2.01343 10.2378 124 114 64
1.98684 -2.00146 10.4089 122 111 66
2.05218 -2.01373 10.5076 100 82 43
2.16678 -1.66368 9.04221 128 12 10
2.71701 -1.52376 8.45227 116 90 80
2.92298 -1.51067 8.48177 127 110 105
2.25781 -1.64821 9.11006 110 8 10
2.92122 -1.48977 8.39335 225 208 206
3.05495 -1.44842 8.18931 166 146 138
1.91058 -1.80017 9.90776 94 68 26
1.95542 -1.77634 9.8853 96 64 25
2.10186 -1.87017 10.404 144 125 82
3.11682 -1.58548 9.08084 122 101 92
3.08783 -1.55947 8.93174 136 117 110
2.96817 -1.47989 8.70168 132 113 105
2.90475 -1.45029 8.5355 100 82 78
2.01176 -1.63998 9.50193 122 89 64
2.04137 -1.63757 9.504 124 91 68
1.99573 -1.67458 9.72514 95 62 25
-3.82266 -1.85196 10.3323 84 66 32
-3.80022 -1.8465 10.3523 126 108 66
-2.38408 -1.89686 10.7992 84 72 36
2.11409 -1.64355 9.72028 100 60 31
-3.80335 -1.79599 10.2795 60 36 10
3.07505 -1.44159 8.8485 156 136 130
-4.09288 -1.69682 9.99161 58 32 22
2.80079 -1.35449 8.4932 142 119 112
-1.16398 -1.85888 10.9118 146 140 94
2.7208 -1.39502 8.64293 124 103 94
2.26427 -1.4582 9.15066 105 63 34
2.6601 -1.33647 8.62918 136 110 99
-1.88661 -1.7075 10.3352 178 106 82
-4.09837 -1.57161 9.66942 52 18 9
-1.17987 -1.78334 10.8242 96 90 46
3.01423 -1.3831 8.94252 142 118 106
2.93912 -1.34764 8.75009 140 112 100
-2.35579 -1.73016 10.5827 141 128 88
2.22883 -1.47177 9.41014 167 148 109
2.24946 -1.46838 9.39126 134 107 72
2.31077 -1.46074 9.34969 132 101 72
2.2641 -1.43222 9.15771 132 98 72
2.32367 -1.44715 9.23313 114 76 51
3.19034 -1.32281 8.63584 149 126 116
3.18614 -1.31016 8.55895 157 134 124
2.30284 -1.47465 9.45211 131 110 71
2.38193 -1.40623 9.06332 126 96 74
2.57193 -1.41337 9.19226 140 102 84
2.59731 -1.40671 9.15363 139 106 91
2.65336 -1.41393 9.2015 194 162 151
-3.61675 -1.62834 10.0742 154 136 89
2.73299 -1.25164 8.38938 150 122 110
2.49475 -1.40308 9.28511 156 125 102
2.60049 -1.39004 9.25532 130 93 70
3.35464 -1.3832 9.21713 158 132 120
2.51973 -1.38784 9.19643 126 91 70
2.75543 -1.4122 9.38777 126 82 62
2.80179 -1.29742 8.71456 138 100 84
3.15115 -1.31929 8.8948 151 120 106
-4.28711 -1.4867 9.59203 103 62 44
2.47798 -1.35103 9.17561 110 76 50
-4.85461 -1.54791 9.96839 144 140 88
-1.99767 -1.56486 10.1794 184 124 99
2.4868 -1.57733 10.4157 164 159 110
2.80604 -1.396 9.53527 158 120 104
3.853 -1.35027 9.24529 124 86 60
-4.11292 -1.46049 9.65925 68 24 14
2.52748 -1.52982 10.4151 148 126 80
3.61411 -1.35991 9.41448 133 90 62
3.23093 -1.35403 9.44503 129 86 66
3.76167 -1.32959 9.2939 134 94 67
-3.60867 -1.54086 10.2243 150 138 88
3.23051 -1.33487 9.389 130 90 70
3.94896 -1.45428 10.2284 128 96 78
-4.48374 -1.3989 9.51844 98 57 34
2.65917 -1.35985 9.5908 128 98 76
0.0400523 -2.16373 14.1204 139 137 90
3.61806 -1.43482 10.2136 148 121 110
3.40287 -1.30694 9.48798 135 112 92
3.00374 -1.46676 10.4149 134 114 83
2.37205 -1.2127 8.90023 138 108 89
4.20895 -1.45133 10.55 100 86 60
2.87868 -1.39361 10.1511 135 114 83
-1.12666 -1.52465 10.7965 142 136 90
3.04856 -1.34435 10.0193 146 116 104
-1.72434 -1.4668 10.5416 44 14 10
2.85017 -1.21799 9.27689 142 114 104
3.5611 -1.28941 9.73043 16 12 7
4.03814 -1.36789 10.2189 86 76 50
-4.60479 -1.3474 9.66581 82 46 28
-1.11709 -1.49032 10.7841 137 131 84
2.56358 -1.4891 10.9818 135 90 48
-1.73513 -1.43838 10.5308 58 20 10
-1.7045 -1.44594 10.6091 56 21 12
3.54846 -1.21021 9.43869 30 23 16
-4.52116 -1.30144 9.5725 82 46 28
-4.07253 -1.2775 9.55251 61 18 8
-1.13399 -1.42384 10.5622 92 82 40
-1.72296 -1.35751 10.2809 122 74 50
3.40997 -1.20082 9.47196 32 20 15
-2.13714 -1.37316 10.6591 100 55 28
4.02606 -1.30743 10.5044 40 20 11
4.25121 -1.2821 10.5442 134 102 58
3.19697 -1.0486 8.96081 44 27 22
3.84561 -1.25246 10.4349 78 26 10
-1.05161 -1.32735 10.7484 126 112 66
-1.01532 -1.33842 10.8204 150 142 92
3.29395 -1.17776 9.91753 150 131 118
3.33287 -1.1655 9.89893 139 122 110
3.45909 -1.19085 10.0822 162 142 132
2.84176 -1.20684 10.198 132 124 86
3.86735 -1.20929 10.2859 44 14 10
2.99484 -1.24597 10.6287 160 157 107
-0.999227 -1.28691 10.6494 146 136 86
3.45773 -1.16582 10.1207 121 104 94
2.6521 -1.85191 14.8815 143 141 91
2.99432 -1.22219 10.5534 93 92 56
-4.72467 -1.16573 9.8441 115 102 68
-1.01492 -1.22668 10.6514 90 66 28
3.27186 -1.0272 9.64915 154 136 123
2.09129 -1.14093 10.4279 158 156 104
2.53903 -1.23734 11.156 133 97 62
2.09149 -1.10962 10.4294 162 151 105
2.65035 -1.13691 10.6362 154 133 93
2.16025 -1.07601 10.2595 100 37 14
3.18118 -0.960709 9.51871 136 81 54
-1.51053 -1.11582 10.4378 99 50 35
-0.967851 -1.1478 10.7696 119 110 62
3.13332 -1.03089 10.1434 156 123 110
2.89598 -0.962544 9.58745 140 76 65
2.53717 -1.13365 11.214 130 75 51
2.86694 -0.937377 9.44352 134 35 26
3.21244 -0.993657 9.96711 140 29 24
3.52021 -0.95628 9.72119 111 70 56
-3.34675 -1.16818 10.9484 142 128 82
2.21174 -1.08186 10.551 126 76 44
3.22666 -0.942115 9.61507 134 70 42
-3.73671 -1.05331 9.94636 54 18 9
-1.51273 -1.07703 10.3894 96 48 32
-0.988027 -1.08815 10.5453 140 133 86
1.93952 -1.00869 10.0701 154 136 95
2.69836 -1.08256 10.748 130 106 70
3.25959 -0.936371 9.61992 101 46 20
3.57006 -0.93583 9.80883 126 88 74
1.98676 -0.995045 10.2032 116 84 52
-4.06876 -0.999727 9.94187 56 18 6
-3.29006 -1.12065 11.0008 142 132 82
2.90574 -0.880808 9.44563 133 24 18
2.99337 -0.985097 10.3992 72 76 56
2.17395 -1.01636 10.6967 147 112 82
2.87588 -0.975015 10.3869 122 116 78
3.02955 -0.907753 9.96081 121 54 44
3.26066 -0.948551 10.3504 125 28 19
3.03884 -0.887246 9.78976 156 61 40
3.07217 -0.966338 10.5048 80 76 59
-3.1133 -0.990861 10.4043 137 131 80
3.01895 -0.89808 10.1364 134 112 96
2.89635 -0.841954 9.65713 123 59 45
3.05986 -0.938855 10.5348 152 128 114
-2.76744 -1.11321 11.5474 140 134 82
-1.43472 -0.96116 10.4385 74 29 16
-2.73424 -1.10598 11.6249 110 96 50
-2.5197 -0.997884 10.8759 122 80 51
2.97819 -0.891799 10.2652 144 122 108
3.9339 -0.790869 9.54884 112 94 50
3.92636 -0.783904 9.4864 138 136 87
2.9696 -0.856769 10.1021 122 103 87
3.35632 -0.781264 9.52088 106 63 43
4.24786 -0.933072 10.9011 121 104 86
-4.0606 -0.920415 9.98438 131 77 51
-2.79635 -1.0199 11.2065 128 120 72
2.88861 -0.877024 10.4497 138 122 89
4.35811 -0.848412 10.3445 112 76 42
3.15981 -0.850846 10.382 174 144 132
3.53267 -0.748718 9.37282 156 138 95
4.13877 -0.851242 10.3922 151 118 82
3.93231 -0.761576 9.54644 132 110 68
-5.59195 -0.921711 10.0547 132 124 86
-5.61483 -0.937297 10.199 124 115 77
3.97261 -0.780871 9.90902 150 118 80
3.917 -0.762597 9.75343 143 112 79
-2.49989 -1.01815 11.6277 161 116 85
2.35094 -0.843046 10.4155 122 76 54
2.31536 -0.929979 11.4086 160 144 102
3.96764 -0.806134 10.1947 149 111 68
-4.81436 -0.88192 10.178 133 123 86
3.64152 -0.771256 10.0343 92 57 43
4.00243 -0.789198 10.3347 152 102 66
-2.02453 -0.830116 10.218 173 124 96
-4.29121 -0.822068 10.0795 52 18 12
-4.08811 -0.78895 9.9452 110 56 32
-5.06522 -0.621239 8.10915 151 142 122
2.02085 -0.813088 10.7138 142 132 88
4.05701 -0.792077 10.6391 61 30 20
2.785 -0.656434 9.51324 144 112 98
2.7887 -0.651097 9.45927 122 96 84
2.99975 -0.686877 9.74571 57 15 8
-4.96334 -0.577203 7.90631 142 134 118
-2.64095 -0.878651 11.293 95 51 24
3.81792 -0.722875 10.2797 24 12 8
4.0597 -0.754845 10.6457 92 54 40
-0.855447 -0.970807 12.6045 118 111 70
3.138 -0.640249 9.46395 116 59 32
3.84677 -0.726561 10.4321 71 36 23
-4.98894 -0.55653 7.97295 87 83 80
-3.70491 -0.739718 10.0947 126 82 60
-2.96603 -0.86627 11.3847 85 58 24
-2.54867 -0.719894 10.0601 102 61 29
-2.51067 -0.743759 10.3561 114 69 40
2.78027 -0.626973 9.60857 152 120 109
3.1812 -0.618434 9.59862 96 50 35
-4.91659 -0.530445 7.86496 152 139 124
3.85914 -0.599981 9.5658 172 150 128
-2.81739 -0.781185 11.0434 67 30 8
2.66096 -0.706974 10.5629 137 139 94
-1.84941 -0.708296 10.3645 180 138 120
3.80072 -0.572769 9.55632 120 102 89
-1.06091 -0.736811 10.6785 120 109 74
4.22062 -0.608854 10.1135 144 130 98
-5.0986 -0.464496 7.53056 31 32 55
2.90024 -0.682469 10.5946 132 112 84
-4.88106 -0.476142 7.71752 47 42 56
-4.3081 -0.716457 10.2751 47 14 9
3.76848 -0.516921 9.26454 128 118 79
-5.02019 -0.411964 7.38326 30 36 63
3.92887 -0.508037 9.52631 126 114 77
2.79723 -0.632881 10.8542 108 110 70
-3.15231 -0.622428 10.4395 100 62 27
-4.83668 -0.414956 7.65844 136 126 110
3.76977 -0.460688 9.26724 132 116 84
-4.20635 -0.582465 9.97542 80 32 17
-3.03412 -0.508543 9.33847 97 56 26
-3.0335 -0.492465 9.53898 108 68 36
1.40026 -0.878758 14.1164 91 88 55
-1.08041 -0.627048 10.8432 121 103 76
-5.0188 -0.361077 7.37673 122 114 107
2.52888 -0.54346 10.6147 22 16 11
3.50199 -0.436471 9.63498 159 89 62
2.59219 -0.51385 10.6667 62 67 52
-4.86594 -0.345564 7.61718 86 81 85
-3.22866 -0.49168 9.89865 126 84 62
-2.71202 -0.465295 9.39962 113 77 46
2.32962 -0.598748 11.5454 132 121 82
2.0553 -0.512593 10.57 78 44 19
2.15098 -0.521988 10.5049 192 156 135
3.29073 -0.415969 9.52744 100 49 27
-3.54444 -0.503969 10.0204 99 54 32
-2.69827 -0.462524 9.63048 143 100 74
2.38648 -0.485656 10.4736 106 74 51
2.42336 -0.474042 10.4623 101 77 54
2.84851 -0.412639 9.8349 150 120 106
-4.92555 -0.318734 7.75433 96 87 86
2.13005 -0.421986 10.614 86 42 17
2.39494 -0.427233 10.6229 136 104 84
2.43563 -0.426077 10.5359 132 112 88
4.07074 -0.365519 9.82675 110 102 68
2.45402 -0.430554 10.6731 112 87 65
-2.38087 -0.392284 9.60707 126 86 66
-4.90961 -0.293746 7.71791 86 76 78
2.8901 -0.337993 9.84649 137 108 90
3.19157 -0.318663 9.48703 106 74 64
-5.04956 -0.278171 7.61927 123 108 103
-5.03844 -0.273508 7.64929 28 24 51
-5.0026 -0.272264 7.6947 21 18 51
2.60281 -0.314394 9.31738 152 117 100
4.31167 -0.365271 10.5219 147 126 96
-4.83358 -0.271742 7.5919 138 118 98
2.81446 -0.323781 9.93512 166 120 98
2.87201 -0.320652 9.71014 71 52 44
-5.02582 -0.267202 7.8652 30 26 52
-4.91177 -0.270347 7.71999 54 32 38
-4.87397 -0.277288 7.89083 146 121 96
-2.84268 -0.321246 9.59678 150 102 77
2.76892 -0.323391 10.068 172 128 103
2.74204 -0.309089 9.91343 160 106 77
2.83826 -0.322057 10.0653 161 106 81
3.31294 -0.302423 9.66496 126 86 74
-4.97759 -0.262577 7.69741 24 22 54
3.10671 -0.277487 9.70092 50 36 39
-4.82872 -0.25721 7.93772 142 108 81
-2.27507 -0.339321 9.98977 139 88 74
2.87054 -0.305053 10.3369 157 100 70
-5.02781 -0.236582 7.7751 20 22 56
-4.79407 -0.2469 7.90957 144 114 90
-3.33032 -0.355631 9.79982 106 65 42
-4.7705 -0.238764 7.90764 150 125 100
-3.17809 -0.307744 9.43194 114 72 51
2.32437 -0.337804 10.9979 133 99 76
-1.61727 -0.327884 10.7387 89 44 33
2.55436 -0.218386 9.34972 176 117 90
-4.8138 -0.219465 8.07091 138 102 79
-3.53086 -0.288806 9.57446 98 54 32
2.61503 -0.253203 10.0578 130 108 90
-4.74462 -0.324606 10.2063 140 119 95
-5.21511 -0.1691 7.65381 160 116 94
-4.72161 -0.287052 10.1607 138 113 88
-4.68697 -0.282734 10.1496 105 63 36
-4.73824 -0.175803 8.02241 142 96 77
-4.68608 -0.174048 7.96467 165 146 124
-3.7189 -0.24646 9.77776 140 94 74
-3.38368 -0.222787 9.47284 84 44 18
-5.23541 -0.154852 7.665 151 102 78
-1.95898 -0.227484 10.2246 117 74 54
-1.41402 -0.272089 10.8176 139 100 79
2.68747 -0.175058 9.90777 184 110 75
-4.76983 -0.264357 10.331 155 135 112
-2.40501 -0.208681 9.65566 74 24 13
3.70302 -0.15138 9.78233 100 57 34
-4.67332 -0.154494 7.98608 161 138 116
-4.72345 -0.246245 10.2768 130 96 73
-1.91503 -0.201677 10.238 138 92 74
-1.44846 -0.239364 10.9566 150 112 94
2.65619 -0.138261 9.84242 188 111 74
4.18733 -0.155084 10.5661 146 112 86
2.54191 -0.204311 11.1805 80 52 22
3.66898 -0.119837 9.71377 98 61 36
-4.67303 -0.132732 7.95477 136 89 74
2.32049 -0.188469 11.2023 128 100 70
-4.59481 -0.203716 10.0376 116 84 62
-2.19036 -0.155722 9.73909 148 96 79
-1.92397 -0.164905 10.144 144 97 79
3.985 -0.117564 10.093 161 143 117
3.14226 -0.175728 12.0405 107 95 62
2.81646 -0.144996 10.8003 138 120 96
-1.94939 -0.142483 10.2755 127 80 61
2.04724 -0.143015 10.9536 178 148 124
2.13813 -0.123049 10.6987 112 84 47
2.96868 -0.0760477 9.79431 98 48 29
2.77957 -0.121215 10.7657 132 105 86
1.83944 -0.0958069 10.7812 157 148 121
3.11702 -0.0414702 9.53742 140 96 80
1.9797 -0.0887609 10.9536 140 124 96
2.87881 -0.0417377 9.71076 157 111 88
3.18236 -0.0320545 9.60779 142 91 76
-2.76918 -0.0872096 9.43367 74 28 10
-2.47903 -0.0736066 9.53682 88 34 20
2.97477 -0.0633156 11.2151 114 92 70
-1.96798 -0.0994526 10.3075 134 88 68
-2.00087 -0.086088 10.2762 130 84 61
-5.27289 -0.0272242 7.57191 158 122 102
-5.37822 -0.0294228 7.80421 145 78 63
-2.12123 -0.0731778 10.1295 98 49 26
1.90943 -0.0540103 10.9868 98 77 46
3.14744 -0.0502774 11.7022 90 80 55
-4.4891 -0.0594228 10.0904 112 77 56
-3.51189 -0.0125814 9.45867 134 78 54
2.63713 0.0589866 9.86886 168 96 59
-5.1038 0.0304956 7.61532 172 52 53
-5.08562 0.0276536 7.64077 180 58 59
3.50289 0.0782102 9.89533 117 83 54
-5.3584 0.054795 7.78246 156 88 72
2.61084 0.111434 9.88517 175 106 68
4.38836 0.0832158 11.5962 114 83 60
-4.00384 0.0235318 9.98635 122 74 54
-2.72784 0.0508273 9.5526 88 50 30
-2.37321 0.0670774 9.59813 126 74 54
2.60727 0.116442 10.9311 94 73 45
-4.314 0.0544697 10.3508 138 106 86
-4.68287 0.0986999 7.80539 158 122 119
3.50111 0.162354 10.0106 74 49 30
-5.17663 0.0995923 7.53086 172 95 94
-4.01572 0.0835641 10.2573 134 87 64
-3.89197 0.0933642 9.87695 140 94 72
3.53501 0.152427 9.85759 90 70 54
3.27698 0.202424 10.1082 94 56 32
-4.63188 0.131292 7.60778 156 144 142
-4.66103 0.116203 7.78497 136 66 67
2.9217 0.171112 11.8613 78 52 27
-4.74304 0.11929 7.62464 128 37 40
-3.01719 0.151099 9.83207 150 102 86
-4.74884 0.145903 7.78657 163 146 146
-4.6478 0.145137 7.7661 138 78 74
3.67898 0.231425 10.1632 35 14 2
-3.28184 0.159283 10.2204 144 100 86
-4.73706 0.156176 7.58781 132 49 52
-3.26474 0.169205 9.87392 133 89 77
-4.67226 0.186013 7.80425 142 79 76
-2.00274 0.168882 10.6623 184 136 114
-4.6912 0.179196 7.78534 104 72 70
-4.16036 0.180917 8.83578 158 122 102
-4.17112 0.184722 8.95091 156 120 98
-5.14242 0.173436 7.54755 184 142 132
-5.10901 0.187977 7.51622 144 42 40
-4.1096 0.185328 8.83645 154 120 98
-4.08579 0.191527 8.8435 158 130 108
-3.30962 0.201431 10.0679 136 92 80
-4.75641 0.186655 7.61888 131 49 49
-4.23329 0.19215 8.93943 137 81 64
-3.75617 0.192952 10.0044 149 100 73
-4.33189 0.216068 9.05354 139 92 66
-3.36415 0.238016 9.95382 110 62 42
-3.3047 0.226292 9.85991 144 98 82
-5.2152 0.228811 7.55806 150 102 90
-5.14315 0.235027 7.61134 149 50 48
-4.75588 0.221584 7.63008 126 36 41
-4.27411 0.242172 8.76092 120 49 20
-4.82207 0.230524 7.5932 106 10 22
-5.30586 0.253765 7.72617 161 129 111
-4.75145 0.237282 7.74689 146 105 107
-4.7359 0.247435 7.75957 138 80 79
-3.65007 0.29522 10.5998 138 90 72
4.09387 0.377679 10.3875 72 45 26
4.66926 0.398102 11.0627 125 87 59
-3.62895 0.294094 10.2852 154 106 84
-4.40407 0.304546 8.87198 146 112 64
-3.88902 0.372158 11.2728 170 122 104
-4.71549 0.302522 8.28751 165 140 118
4.63016 0.449958 10.763 116 84 60
-4.01756 0.32773 9.05834 162 118 96
3.20238 0.43643 9.98866 86 44 22
4.47015 0.462568 10.9751 65 36 18
3.50178 0.438493 9.17868 59 24 10
-4.70654 0.339742 8.33145 150 120 103
4.00457 0.476392 10.1812 146 125 106
4.87381 0.504854 11.1066 139 118 96
-4.73096 0.352401 8.5009 122 88 67
-4.63887 0.375617 8.35087 90 36 6
2.37123 0.571448 11.8399 121 90 65
-5.31689 0.360205 7.79784 162 110 94
-4.85058 0.383044 7.59842 43 10 39
