ply
format ascii 1.0
element vertex 974
property float x
property float y
property float z
property uchar red
property uchar green
property uchar blue
end_header
-0.229052 0.264858 2.76357 0 255 0
-0.351437 0.245917 2.72455 0 255 0
-0.513828 0.237702 2.74797 0 255 0
-0.731738 0.280914 2.74825 0 255 0
-0.595545 0.271915 2.68714 0 255 0
-0.250327 0.276841 2.59331 0 255 0
0.0311422 0.276493 2.53216 0 255 0
0.229865 0.272324 2.42529 0 255 0
0.550182 0.257715 2.44526 0 255 0
0.902322 -0.590785 8.2818 0 255 0
-0.00662666 -0.00246927 2.4384 0 255 0
-0.740772 -0.0833394 2.59642 0 255 0
-0.235826 -0.0668944 2.71999 0 255 0
-0.5696 -0.50706 5.45206 189 196 205
-0.219671 -0.355775 5.38719 166 114 122
-0.251547 -0.332838 5.35307 228 180 190
-1.28012 -0.209128 4.99689 178 178 178
-0.198955 -0.311759 5.33214 172 120 133
-0.195729 -0.306305 5.32953 193 154 167
0.241816 0.0484877 3.94635 184 204 234
-0.283456 -0.114907 5.34486 165 134 137
-0.169773 0.0628158 5.23191 192 46 70
-0.224228 0.065 5.29023 200 90 38
-0.222466 0.0696065 5.31292 188 71 26
-0.278986 0.114634 5.30355 142 32 19
-0.0803641 0.110118 5.35674 172 73 100
-0.13147 0.121893 5.31855 174 128 134
-0.210828 0.124886 5.2718 167 108 87
-0.205761 0.124506 5.27945 164 111 92
-0.241878 0.129311 5.27229 122 48 26
-0.0756651 0.124239 5.36768 204 202 216
0.167705 0.200442 4.71636 192 204 221
-0.272805 0.181528 5.3124 202 194 140
-0.195244 0.212274 5.22031 164 162 162
-0.112907 0.234106 5.23979 201 204 184
-0.105134 0.23195 5.26924 200 207 190
-0.318553 0.238281 5.23531 179 182 177
-0.319241 0.242782 5.25723 164 164 150
-0.0972486 0.264167 5.23641 177 194 196
-0.115864 0.273984 5.25876 177 192 201
-0.139582 0.281149 5.24862 162 174 184
-0.121276 0.283365 5.2825 180 206 232
-0.256716 0.286749 5.28028 128 112 84
-0.112228 0.287605 5.2882 196 220 235
-0.217827 0.308519 5.22238 177 174 152
-0.0680958 0.311766 5.36371 196 218 229
-0.313254 0.337058 5.41202 186 141 116
-0.066843 0.34132 5.28478 194 212 218
-0.264973 0.36553 5.25163 200 134 130
-0.228351 0.394053 5.2404 178 151 125
-0.248565 0.393757 5.18901 206 173 173
-0.388811 0.393645 5.11453 145 40 25
-0.22827 0.398478 5.24233 168 140 117
-0.227522 0.404256 5.24448 152 125 100
-0.0644448 0.420625 5.30875 222 196 21
-0.319715 0.422324 5.10911 188 86 90
-0.207663 0.432777 5.2438 172 168 145
-0.449615 0.430804 5.16462 189 153 137
-0.328761 0.423344 5.09288 192 62 78
-0.24164 0.432068 5.1697 186 166 153
-0.332429 0.430948 5.08616 144 40 57
-0.250391 0.45147 5.26684 144 72 18
-0.00423326 0.458578 5.38721 214 184 43
-0.23837 0.449888 5.22703 133 115 62
-0.442335 0.458244 5.21559 122 73 63
-0.234699 0.467866 5.28917 116 96 30
0.0434498 0.489789 5.49681 204 190 116
-0.0906031 0.482729 5.34354 227 198 28
-0.387791 0.468278 5.13738 140 100 92
-0.369709 0.477366 5.23681 148 122 97
-0.058059 0.48471 5.34819 242 209 46
-0.199284 0.488877 5.30965 162 140 46
-0.280206 0.498059 5.26908 142 105 0
-0.139352 0.508805 5.3358 222 188 0
-0.064086 0.518226 5.3605 232 209 74
-0.00834087 0.511457 5.34463 221 172 0
0.0198288 0.531957 5.41832 202 162 4
-0.098221 0.530046 5.30367 218 194 66
0.0514041 0.545394 5.4346 208 184 96
-0.0509998 0.536929 5.39386 245 213 46
-0.128589 0.54556 5.3314 223 194 8
-0.271536 0.530879 5.27721 148 104 0
-0.273089 0.549777 5.30757 149 106 0
0.016973 0.555241 5.37474 170 126 60
-0.221533 0.54854 5.27421 156 129 55
-0.14245 0.563348 5.37661 164 133 46
-0.294433 0.565063 5.26577 166 144 104
-0.392744 0.5818 5.4304 176 153 66
-0.0843211 0.595272 5.40988 231 124 0
-0.402723 0.618283 5.4557 167 152 125
0.48379 0.689462 5.98575 146 114 73
-0.120647 0.604313 5.28805 122 88 90
0.448332 0.694492 5.84954 146 114 72
-0.267345 0.607532 5.28867 192 98 2
-0.340861 0.621567 5.29152 144 132 64
0.0816424 0.644846 5.45122 162 126 48
-0.0191683 0.637801 5.35994 238 122 26
-0.064678 0.639625 5.34323 237 140 18
0.252707 0.683716 5.69376 136 104 73
0.344302 0.714316 5.75448 146 112 74
-0.254934 0.646417 5.32396 155 96 0
-0.152818 0.650883 5.33118 73 18 15
-0.17182 0.645271 5.29558 65 12 9
0.174465 0.727393 5.78318 139 106 72
-0.131429 0.660413 5.29444 62 12 2
-0.306657 0.663713 5.2657 150 182 170
-0.220546 0.670235 5.30562 136 100 22
-0.307194 0.669781 5.26884 147 182 174
0.083053 0.707893 5.45812 167 126 34
-0.30788 0.687513 5.30597 148 182 174
0.00892204 0.698003 5.3559 138 110 20
0.0146036 0.707702 5.38491 108 89 31
-0.294778 0.708181 5.31421 148 190 190
0.35555 0.789487 5.70748 143 110 66
0.206279 0.776282 5.59762 138 104 66
0.0594764 0.757048 5.41192 214 185 77
-0.300093 0.735744 5.31456 138 106 20
0.20713 0.796369 5.62799 143 110 68
0.00154078 0.756744 5.35788 208 161 0
0.171546 0.810371 5.63065 144 110 68
0.201412 0.814116 5.64954 142 106 66
0.204199 0.82362 5.66798 143 104 66
0.0695457 0.789874 5.49065 212 186 42
0.264554 0.802504 5.54694 137 103 62
0.0223356 0.77987 5.39602 170 144 86
0.107977 0.816896 5.56988 144 106 49
0.0538897 0.791661 5.41416 195 168 2
0.268939 0.836296 5.59904 140 103 64
0.403372 0.813703 5.43359 141 108 64
-0.387896 0.856742 5.63 126 82 6
0.130337 0.838926 5.492 143 102 55
-0.2793 0.814409 5.36956 177 126 0
0.13826 0.84778 5.47825 143 103 55
-0.279427 0.841185 5.45077 178 126 0
-0.202448 0.832295 5.43835 192 142 0
0.31017 0.84259 5.47772 140 106 66
0.0687007 0.850125 5.44863 106 61 2
0.266386 0.847859 5.44469 136 100 60
0.0478113 0.852684 5.41119 98 57 9
0.254224 0.859616 5.40308 144 109 68
-0.208424 0.869101 5.39293 189 136 0
0.131504 0.881099 5.49639 144 103 50
0.248925 0.865162 5.40779 144 110 64
-1.43805 0.95306 5.82505 130 96 49
0.192362 0.866616 5.39256 144 109 62
-0.00758284 0.87043 5.37773 92 54 0
0.23495 0.862575 5.33423 144 109 64
0.0856651 0.867641 5.34138 142 102 42
-1.44425 0.951567 5.7191 132 95 50
0.222142 0.879475 5.36311 144 104 62
-0.244053 0.899321 5.41869 127 78 1
-0.16853 0.894251 5.37427 119 72 1
-0.13811 0.895921 5.38339 122 73 4
0.260458 0.890991 5.35414 136 101 56
-1.19341 0.958128 5.56045 134 97 40
0.205674 0.890329 5.27226 140 104 60
-1.05003 0.972048 5.45573 136 99 38
-1.20573 0.964412 5.43108 129 95 52
-1.41917 0.988356 5.49138 134 96 53
-1.26868 1.0159 5.51638 132 92 51
-1.30172 0.995633 5.37238 132 96 50
-1.60664 1.05213 5.60325 130 93 44
-1.37158 1.00663 5.43261 130 92 45
-1.20308 0.995587 5.37451 132 96 45
-1.40975 1.00084 5.42368 128 96 52
-1.28807 1.04066 5.47248 132 91 48
-0.869602 0.983982 5.27354 135 98 36
-1.16523 0.994439 5.30837 134 100 42
-1.30378 1.0266 5.28042 136 100 47
-1.11689 0.965646 5.10204 135 97 50
-1.29605 1.06228 5.33563 133 92 45
-1.06587 1.08661 5.39961 132 97 32
-0.556502 0.97304 5.0176 144 106 39
-1.13171 0.990619 5.05232 133 94 38
0.00448604 1.0408 5.18537 134 88 26
-1.31786 1.02573 5.17444 128 92 43
-1.36266 1.01604 5.15666 131 94 48
-0.864037 0.961695 4.9765 140 102 37
-1.23149 1.11281 5.42915 134 98 41
-1.13654 1.09355 5.36048 139 103 40
0.024431 1.02084 5.07213 136 96 36
0.14113 0.963974 4.87255 137 103 52
0.215849 0.944714 4.83793 136 102 50
0.82361 1.29988 5.91337 138 102 58
-0.105244 -0.574236 5.72413 188 198 209
-0.10905 -0.531306 5.66726 186 196 207
-0.265729 -0.266826 5.34425 143 66 71
-0.132363 -0.107026 5.35044 151 94 110
-0.285262 -0.0649336 5.34968 141 103 104
-0.238548 0.10683 5.27493 171 14 6
-0.103305 0.119684 5.39891 154 113 126
-0.234535 0.150909 5.27039 74 65 58
-0.0659776 0.181387 5.39073 197 216 228
-0.310258 0.244833 5.28895 187 189 170
-0.0894746 0.262342 5.25018 194 210 214
-0.0950891 0.286654 5.23935 198 219 228
-0.224011 0.298968 5.23081 176 172 146
-0.194974 0.326008 5.34779 186 186 168
-0.102511 0.339819 5.29598 204 224 232
-0.350526 0.347161 5.14563 179 74 74
-0.30463 0.352399 5.14889 157 56 70
-0.0841297 0.362236 5.26881 196 216 221
-0.324595 0.42311 5.10673 202 77 89
-0.451992 0.436444 5.20381 199 166 159
-0.255828 0.460565 5.22666 130 78 12
-0.303921 0.457021 5.13526 218 225 221
0.00399389 0.48355 5.39831 226 192 28
0.0153777 0.516468 5.41796 232 193 22
0.0193569 0.549708 5.36611 198 154 37
-0.292953 0.572472 5.26376 155 110 78
-0.104005 0.586077 5.27095 232 120 0
-0.149613 0.591578 5.26782 58 36 44
-0.103602 0.592612 5.26829 228 114 0
-0.110983 0.607112 5.25562 237 172 88
0.0870768 0.652307 5.47375 160 124 48
-0.1213 0.63271 5.26225 140 78 14
0.0406939 0.650378 5.36098 232 196 6
-0.262958 0.645326 5.3182 170 112 6
0.088227 0.680994 5.46483 160 126 48
-0.343388 0.688685 5.32673 158 118 5
0.06365 0.741939 5.42339 198 168 72
-0.349089 0.752312 5.3949 168 121 2
0.389348 0.800068 5.68622 146 112 70
0.238729 0.827265 5.58748 143 105 62
0.0513469 0.799499 5.41677 196 166 6
-0.240933 0.789252 5.33621 190 140 0
0.207957 0.840464 5.48201 144 106 63
0.350054 0.854385 5.51747 148 116 67
0.42413 0.844485 5.37154 145 112 70
0.0377064 0.861265 5.4228 104 56 2
0.287584 0.860696 5.35357 143 106 66
0.343762 0.86793 5.3566 143 108 66
-0.115216 0.897699 5.40507 140 101 26
0.248869 0.876201 5.31382 138 100 60
-0.190854 0.893578 5.37678 140 90 5
-0.0428939 0.903331 5.34315 148 98 0
0.124189 0.911716 5.20471 145 109 61
-0.00221204 0.966527 5.24045 139 94 16
-0.127334 0.970312 5.18717 143 96 6
-1.31735 1.03608 5.30516 144 106 52
0.0427602 0.506658 5.45372 212 194 94
-0.179199 0.50335 5.29466 208 166 3
-0.125821 0.562544 5.27428 186 145 56
-0.336022 0.624165 5.32131 158 146 84
-0.275966 0.70244 5.32075 192 196 124
-0.0767773 0.931759 5.39618 146 98 0
-0.120565 1.02836 5.22429 143 98 8
-0.110176 -0.517208 5.67795 187 196 204
-0.12992 0.0679042 5.30775 200 34 66
-0.154935 0.280663 5.22767 142 142 126
-0.278627 0.284202 5.27805 150 135 93
-0.0558218 0.360259 5.3144 216 214 128
-0.137376 0.55258 5.29154 170 143 44
-0.29344 0.580087 5.25255 192 164 135
-0.23414 0.711599 5.32067 192 144 2
-0.37605 0.877372 5.61503 129 78 10
-0.326371 0.883621 5.46801 108 57 3
0.416148 0.875279 5.25848 146 111 68
-0.108004 -0.601083 5.70544 188 196 207
-0.0942766 -0.524289 5.85921 183 194 202
-0.245326 -0.301782 5.17656 219 186 188
-0.19189 -0.312928 5.39181 162 113 127
-0.178835 -0.364953 5.72639 151 106 120
-0.177301 -0.352739 5.69798 141 88 102
-0.269677 -0.23664 5.32465 172 116 118
-0.232916 -0.105066 5.04597 173 58 24
-0.101921 -0.0243877 5.41951 176 140 152
-0.144499 0.119949 5.27764 200 148 150
-0.217134 0.124487 5.28149 122 46 31
-0.111598 0.104612 5.66871 142 136 139
-0.234579 0.140864 5.27095 62 53 31
-0.0631382 0.226669 5.32558 201 222 236
-0.0574044 0.236741 5.41189 199 222 234
-0.315936 0.25003 5.23856 165 159 144
-0.272905 0.283606 5.25537 134 119 80
-0.267281 0.285297 5.23504 133 118 78
-0.0399079 0.332567 5.38301 177 174 152
-0.36974 0.332939 5.26628 152 130 128
-0.369673 0.33308 5.10983 161 99 102
-0.086584 0.321885 4.77498 200 196 154
-0.383682 0.336574 5.24047 180 120 124
-0.0727593 0.332786 4.98729 210 205 131
-0.385948 0.336223 5.04585 179 119 121
-0.319946 0.339669 5.17676 194 90 91
-0.069743 0.338877 5.02916 213 206 103
-0.0193662 0.369518 5.44432 201 198 158
-0.396882 0.370527 5.17794 123 56 48
-0.436937 0.38423 5.19765 178 126 114
-0.060759 0.401923 5.31136 224 206 68
-0.0621961 0.40945 5.31582 226 208 66
0.344609 0.347519 4.09937 182 190 200
-0.0639706 0.41334 5.30545 224 201 35
-0.0293097 0.447115 5.33006 226 190 0
-0.179782 0.49066 5.28802 213 173 0
-0.185822 0.493719 5.26609 198 155 2
-0.237451 0.549234 5.29371 180 159 2
-0.225957 0.539712 5.18686 178 156 52
-0.13334 0.540497 5.19015 231 198 11
0.627259 0.650758 6.07789 159 142 124
-0.0770418 0.572416 5.39624 236 188 22
-0.0632914 0.531629 5.02759 246 170 75
0.440129 0.635688 5.87157 163 150 140
-0.171608 0.578323 5.27135 55 30 27
-0.11449 0.604609 5.27619 240 217 198
0.368551 0.711031 5.92757 144 111 77
-1.3143 0.723488 5.83219 159 138 112
-0.310848 0.63776 5.25198 162 180 148
0.206949 0.738329 5.84217 142 110 76
0.0340697 0.670766 5.35669 240 206 14
-0.114707 0.686956 5.39999 208 174 6
0.248791 0.75487 5.85958 136 102 72
0.237158 0.75159 5.74618 138 105 75
0.256485 0.74791 5.69228 141 108 74
0.17253 0.761895 5.71151 146 114 76
0.288882 0.771452 5.60802 142 108 70
-0.262997 0.747552 5.42505 166 118 2
0.145028 0.784779 5.64281 141 106 70
0.213499 0.787444 5.63265 143 109 72
-0.292878 0.730084 5.29891 152 132 51
-0.318797 0.705676 5.16369 152 128 31
0.279705 0.807696 5.68388 142 110 64
0.165178 0.789889 5.56575 146 112 74
0.19028 0.809099 5.62716 146 104 68
0.328777 0.790781 5.50762 146 111 66
0.193388 0.824167 5.65975 145 104 66
0.280566 0.800033 5.53589 138 105 66
0.405985 0.852047 5.74999 145 110 70
0.275036 0.817135 5.50543 140 105 68
0.220521 0.818067 5.49165 144 106 66
0.299931 0.849794 5.63602 140 104 69
0.292293 0.776611 5.19023 146 112 68
0.222793 0.848274 5.55818 142 106 65
0.0880046 0.838574 5.49198 136 94 11
0.0744862 0.842273 5.43556 122 78 13
0.0648615 0.845879 5.43307 104 60 2
-1.43959 0.967447 5.81967 137 100 57
0.40708 1.00174 5.93022 144 108 63
-0.0251039 0.8733 5.37379 105 63 1
0.247098 0.865953 5.337 134 98 66
-1.35989 0.929056 5.60081 132 97 58
-0.0501861 0.866948 5.31857 107 60 2
-1.34863 0.942218 5.63997 134 96 55
0.0521449 0.884487 5.35833 138 94 12
0.0244639 0.897137 5.36925 146 100 2
0.0562267 0.906774 5.34573 138 96 19
-1.28068 0.94058 5.53996 136 100 56
0.148217 0.858742 5.18492 144 110 67
0.0300232 0.908969 5.38663 145 99 6
0.151308 0.868822 5.20483 145 112 67
-0.00906826 0.872235 5.21403 146 101 0
-1.3236 0.932869 5.46317 134 97 58
0.236488 0.876509 5.21538 138 104 60
0.254504 0.907495 5.30911 140 104 63
0.399409 0.889451 5.25788 144 111 62
0.258287 0.91803 5.32917 139 104 65
0.230428 0.889572 5.17915 140 105 64
-1.26923 0.989299 5.58449 138 101 50
-0.00475981 0.961007 5.46105 140 96 2
-0.0448236 0.917082 5.24518 146 100 2
0.237794 0.798728 4.80818 142 104 62
0.268025 0.900112 5.15675 142 105 60
0.223325 0.898982 5.14367 139 104 60
0.316149 0.806452 4.79359 146 112 68
0.0229937 0.921457 5.19272 144 100 28
0.303568 0.888515 5.0532 142 106 58
-0.050111 0.904527 5.0916 146 104 16
0.025691 0.934503 5.1705 143 100 23
-0.119047 0.790567 4.66856 141 97 0
-0.0985154 0.982077 5.27473 144 97 4
0.274494 1.01028 5.40414 140 102 65
0.286794 0.910405 5.05599 146 110 64
-1.3363 1.09971 5.70274 138 102 52
0.170373 0.925433 5.06014 147 110 63
0.23131 0.968941 5.16093 141 104 57
0.426718 1.19321 5.87696 138 103 59
0.303313 0.963174 5.10663 140 104 62
-1.28389 1.00373 5.24312 140 104 52
-0.00246377 0.948066 5.03848 140 98 16
0.162874 0.935071 4.98565 150 116 70
0.313001 0.814283 4.57208 146 112 64
-1.09901 1.0759 5.45 138 102 48
-0.0367112 0.923324 4.90093 140 94 19
-1.2895 1.08242 5.4245 134 98 46
0.483594 0.988079 5.0976 148 112 58
0.0214032 1.00546 5.13889 138 94 27
0.196238 0.952711 4.96724 142 105 60
-1.23175 1.06827 5.35025 136 100 48
0.130526 0.917355 4.8454 143 104 57
-1.24896 1.05249 5.28299 138 99 50
0.137242 0.93578 4.87544 142 102 60
-1.23715 1.12651 5.47781 138 102 39
0.288664 0.783614 4.37218 143 107 56
0.142979 0.954947 4.89043 139 104 60
0.357173 1.00073 5.03753 142 106 54
-1.28939 1.01596 5.08561 137 96 50
-1.36441 1.18704 5.60804 136 99 50
0.0474559 1.20508 5.64168 135 91 24
-0.273058 -0.266584 5.40199 180 130 132
0.608618 -0.424391 6.28094 198 212 232
-0.206147 -0.155594 5.29721 178 40 46
-0.249749 0.286689 5.27771 128 114 91
-0.0656337 0.339342 5.29419 192 212 217
-0.400761 0.346834 5.19486 174 106 94
-0.360687 0.347219 5.15434 167 46 48
-0.445208 0.403271 5.20091 176 120 110
0.0106428 0.436661 5.44338 208 190 84
-0.240242 0.427578 5.21877 198 201 197
-0.264071 0.449249 5.19258 126 50 32
0.00471664 0.486619 5.35506 248 218 62
0.0386642 0.507215 5.39885 214 194 88
-0.304072 0.520002 5.26498 175 186 154
-0.108825 0.531933 5.35476 226 199 26
-0.235402 0.592641 5.28047 95 28 4
-0.123344 0.596784 5.26087 135 86 76
0.171461 0.727668 5.91764 136 102 76
0.254695 0.698229 5.56763 137 104 74
0.0910983 0.716939 5.4727 146 112 64
0.101924 0.776995 5.55619 146 108 46
-0.309951 0.740693 5.34266 165 132 41
-0.268807 0.759936 5.3667 173 127 0
-0.0401971 0.928368 5.34502 144 97 4
-0.120162 0.948751 5.41283 148 100 1
0.163767 0.923936 5.23094 154 120 66
-0.119782 0.976647 5.38969 141 94 0
0.146404 0.913088 5.12647 153 122 68
-0.128 0.934643 5.13793 144 94 2
-1.24145 1.0063 5.24622 134 98 52
-1.16683 1.0432 5.24282 136 102 50
-0.273425 -0.232671 5.36263 158 106 112
-0.0837603 -0.237417 5.79323 186 196 202
-0.302026 0.116928 5.36498 177 151 154
-0.0303295 0.396739 5.3672 216 191 30
-0.208448 -0.235496 5.3598 186 30 40
-0.108331 -0.582451 5.71001 188 198 208
-0.239304 -0.350986 5.39209 203 140 145
-0.222752 0.0825849 5.28767 182 48 16
-0.221695 0.099231 5.27609 212 74 37
-0.29969 0.137124 5.34897 149 76 77
-0.174871 0.146073 5.24194 60 58 66
-0.0960224 0.237419 5.2744 191 198 190
-0.27529 0.281493 5.28085 136 120 82
-0.110757 0.284049 5.26273 182 200 210
-0.27031 0.284031 5.26849 132 114 77
-0.157204 0.365468 5.43688 196 204 195
-0.421076 0.364837 5.2894 180 173 162
-0.054487 0.372362 5.29675 216 202 81
-0.433459 0.374792 5.16859 165 140 128
-0.44223 0.392807 5.18995 190 145 146
-0.0604662 0.417031 5.3216 223 201 44
-0.226634 0.407709 5.2337 148 122 100
0.0215162 0.425821 5.51557 202 194 142
-0.324107 0.414857 5.08071 210 66 72
-0.245452 0.450592 5.17077 134 113 55
-0.000146191 0.474584 5.38577 218 184 16
-0.446426 0.448374 5.14186 187 170 165
-0.23395 0.48513 5.166 172 144 0
-0.346029 0.5058 5.22619 120 128 92
-0.229392 0.545894 5.28903 166 138 0
-0.119464 0.557098 5.28573 227 184 1
0.0656291 0.585703 5.5093 226 188 11
-0.129264 0.561637 5.29477 82 49 9
0.0481018 0.582313 5.44925 230 192 0
0.0322311 0.58138 5.39137 230 182 12
0.0285127 0.594825 5.37733 214 154 3
-0.365326 0.585087 5.30274 172 142 54
-0.207261 0.616687 5.19682 60 10 16
-0.903208 0.680109 5.70247 149 119 68
-0.146381 0.644682 5.2902 76 20 26
-0.382369 0.663708 5.41576 158 113 5
-0.126659 0.661706 5.28329 70 18 1
0.156826 0.720658 5.56669 138 103 73
0.0136557 0.694522 5.38167 109 75 3
-0.282839 0.739986 5.34709 140 104 12
0.343566 0.815662 5.69421 140 106 66
-0.293528 0.746652 5.36885 165 144 67
-0.317301 0.746638 5.34919 164 119 1
0.295993 0.820915 5.6264 136 102 62
-0.261653 0.793999 5.48757 178 130 0
-0.226344 0.815155 5.59577 187 136 0
0.332868 0.806156 5.5042 141 107 66
0.0132698 0.779475 5.36235 201 166 8
0.237118 0.842778 5.57416 144 108 66
0.330724 0.852735 5.56959 141 106 66
-0.383658 0.860771 5.6199 126 78 6
0.291899 0.856544 5.56248 137 100 60
-0.0325032 0.828529 5.41503 216 180 0
0.0885851 0.855307 5.51087 123 81 11
0.354494 0.869628 5.52656 143 110 64
0.0705472 0.862337 5.47104 128 82 6
0.00963707 0.86815 5.39485 115 74 2
-0.0991725 0.886676 5.35537 90 65 21
0.170798 0.888207 5.31582 143 108 62
-1.29616 0.92818 5.56206 133 96 46
0.16609 0.890751 5.28217 144 110 64
0.24844 0.900269 5.25534 138 102 56
-1.10816 0.95835 5.49143 136 98 42
-0.0118719 0.927462 5.35486 143 96 1
-1.29127 0.95228 5.49422 140 104 52
-0.00107074 0.954355 5.40705 139 92 4
0.0274218 0.907895 5.28566 138 96 24
-1.07054 0.975057 5.42688 136 98 38
0.0664881 0.922904 5.21808 132 90 43
-1.18335 0.969685 5.41003 134 96 44
-1.14144 0.987173 5.39259 135 96 38
-1.18766 0.977709 5.34417 134 96 42
-1.04414 0.979951 5.33606 137 98 40
-1.22273 0.974226 5.32592 134 96 40
0.0821846 0.951532 5.13764 133 92 46
-1.0568 1.02587 5.41216 140 102 36
0.446299 0.95551 5.06728 142 110 59
-0.0142489 0.969918 5.10061 136 93 24
-1.44657 1.06447 5.44919 132 89 50
-0.0449806 1.04232 5.25486 138 94 15
-1.50433 1.08633 5.40291 129 90 46
-1.01017 0.99671 5.05819 140 102 28
-0.17709 0.0647977 5.37404 190 42 42
-0.166959 0.115638 5.27491 158 26 48
-0.0686773 0.233901 5.26538 179 190 204
-0.170264 0.383891 5.29335 192 198 186
0.0113781 0.555453 5.51024 230 191 2
-0.238032 0.556319 5.27154 172 150 4
-0.114672 0.60814 5.29156 156 138 130
-0.332666 0.626834 5.25316 132 134 90
0.00938245 0.70799 5.38732 208 180 23
0.289838 0.795482 5.68064 142 108 70
-0.306827 0.850549 5.41881 173 117 0
-0.278899 0.895183 5.30052 134 78 0
-0.569378 -0.430097 5.349 189 198 206
-0.179254 -0.243928 5.29518 146 97 108
-0.285213 -0.0986414 5.33451 170 136 141
-0.398423 0.348433 5.11754 201 108 95
-0.435229 0.38183 5.18157 154 91 86
-0.353895 0.515163 5.28905 122 118 55
-0.0511663 0.573597 5.37567 228 166 70
-0.447531 0.646036 5.60782 146 116 84
-0.120969 0.665064 5.28949 160 126 13
-0.264639 0.749981 5.34748 163 119 1
-0.133542 0.791669 5.33511 209 166 0
-0.275574 0.803688 5.39439 182 133 0
-0.381073 0.861694 5.59497 125 76 4
0.0785668 0.84988 5.4755 115 74 11
-0.11764 0.838981 5.38712 216 172 1
0.0437193 0.869318 5.44472 108 60 4
0.245703 0.931793 5.20958 138 103 60
0.575266 0.95686 4.94781 139 104 60
-0.0948883 -0.538582 5.86154 179 189 198
-0.232839 -0.17504 5.30939 165 30 12
-0.232194 -0.1419 5.30578 179 71 30
-0.304834 0.247893 5.30384 192 196 173
-0.36204 0.331832 5.36638 173 159 160
-0.440589 0.381795 5.17489 188 174 166
0.00237818 0.542631 5.18093 218 170 2
0.464438 0.66695 6.13158 160 146 137
0.413591 0.716671 6.10846 144 114 74
0.0816007 0.717289 5.47095 180 138 33
0.299131 0.827711 5.63461 140 105 64
0.37367 0.811701 5.49502 144 111 68
0.378986 0.824319 5.37784 140 108 66
0.086166 0.866149 5.37542 140 97 45
-0.0711791 0.868944 5.30884 100 59 5
-0.0896748 0.87416 5.31238 99 63 0
0.267025 0.877441 5.18525 139 103 63
0.50478 0.973369 5.4101 143 110 63
0.247753 0.922643 5.01354 138 102 58
0.142506 0.944029 4.88979 138 100 56
-1.42172 1.10316 5.43941 132 93 48
-0.0949316 -0.368613 5.79172 179 188 195
-0.680753 -0.51837 5.88761 188 192 198
-0.19495 -0.30169 5.32246 174 123 132
-0.922926 -0.34333 5.71622 188 192 199
-0.267695 -0.251318 5.33346 176 107 117
-0.49336 -0.295311 5.6049 190 199 209
-0.283255 -0.10502 5.35176 167 124 132
-0.283264 -0.0997495 5.35335 163 116 125
-0.229076 0.107659 5.29813 177 26 10
-0.217554 0.124895 5.19916 150 10 18
-0.230475 0.130696 5.28885 189 142 97
-0.0482986 0.347165 5.35485 195 206 212
-0.280428 0.408739 5.14447 202 64 104
-0.371515 0.415341 5.14963 176 28 12
-0.45215 0.432996 5.20173 201 172 173
-0.447302 0.44803 5.22173 190 174 178
-0.226357 0.546584 5.26651 186 168 12
-0.290975 0.579847 5.27894 184 149 120
-0.00914754 0.601972 5.33771 235 104 0
-0.142439 0.601674 5.31782 67 44 54
-0.193574 0.607218 5.30048 60 26 35
-0.235325 0.627915 5.28024 142 44 21
-0.327905 0.645972 5.25749 144 162 131
0.0163163 0.702378 5.39267 116 84 17
0.284662 0.756655 5.68527 145 111 74
0.231523 0.808358 5.74467 142 108 72
-1.69199 0.822028 6.21736 143 110 66
-0.271139 0.747363 5.35628 163 120 1
0.320541 0.826164 5.60009 145 110 70
0.269614 0.832078 5.60686 143 106 68
0.306495 0.833187 5.51048 143 109 72
0.292203 0.846196 5.57031 140 106 70
0.107535 0.85178 5.56557 130 92 29
-0.383861 0.858598 5.58468 126 74 6
-0.376727 0.860801 5.52608 102 44 2
-0.382396 0.862635 5.5176 138 90 10
0.266704 0.881327 5.45141 145 112 71
-1.28547 0.875031 5.7562 143 106 50
-0.360705 0.876702 5.52712 117 64 7
-1.38785 0.876306 5.74536 136 98 47
0.2657 0.886525 5.39756 136 102 71
-0.0210477 0.88261 5.3926 96 54 0
0.0955972 0.884141 5.35985 150 112 60
0.0515461 0.887035 5.32192 139 98 42
-0.241265 0.896787 5.41806 188 141 16
0.0811219 0.891068 5.3032 143 104 56
-0.246921 0.90066 5.41976 134 86 0
-1.19495 0.956873 5.6895 137 100 42
-1.42249 0.946051 5.62486 138 97 51
0.244471 0.921196 5.21431 140 103 69
-1.35418 0.936423 5.50558 132 92 48
-1.21348 0.931763 5.45039 136 96 40
-0.266118 0.928579 5.18266 139 88 0
0.270265 0.937856 5.09681 140 108 62
0.521022 1.00359 5.2812 145 114 66
-1.16107 0.935674 5.30268 136 98 46
-0.248071 0.992558 5.29538 136 88 2
0.117447 0.956883 5.11775 140 102 58
-1.0361 0.9734 5.45513 142 104 43
-1.16657 0.950707 5.32044 140 102 48
-1.42599 0.970635 5.40953 136 96 49
-1.1786 0.962739 5.31631 136 96 38
0.031567 0.946875 5.02586 138 100 48
-1.44842 0.976841 5.38387 132 92 33
0.395787 0.956033 4.92632 145 113 69
0.0149871 1.01936 5.18645 139 99 45
-1.5566 0.984596 5.34606 134 98 40
-0.192623 1.09617 5.48848 134 88 4
-0.0484026 0.959807 4.92598 141 98 46
-0.0114022 1.04994 5.15771 138 100 36
0.42519 0.990012 4.85581 144 112 65
-0.0911892 1.06166 5.13483 140 96 21
-0.238463 -0.337902 5.33137 163 74 76
-0.177462 -0.284319 5.36073 180 143 154
-0.177072 -0.267211 5.33068 216 192 202
-0.276883 -0.241323 5.24069 170 106 112
-0.221032 -0.174425 5.38876 170 43 24
-0.215477 -0.070351 5.3737 181 75 29
-0.135181 0.125444 5.27103 178 138 146
-0.296072 0.140099 5.39318 140 70 70
-0.136529 0.305764 5.26061 217 242 249
-0.0697568 0.342944 5.26315 196 210 219
-0.401805 0.344694 5.21932 179 162 152
-0.406917 0.346377 5.22333 188 180 172
-0.409103 0.357067 5.31135 188 184 176
-0.41558 0.361941 5.28585 188 178 172
-0.443583 0.397893 5.20188 194 152 150
-0.451454 0.437868 5.19701 190 167 168
-0.124191 0.552333 5.28993 234 197 0
0.361688 0.657561 5.95955 154 138 133
-0.229719 0.547655 5.24442 173 152 38
-0.13149 0.554451 5.22138 220 180 31
-0.157221 0.595515 5.21647 64 38 48
-0.957563 0.690786 5.7655 161 134 88
-0.951187 0.690955 5.76436 154 124 79
0.0920635 0.69137 5.48236 152 116 54
-0.129209 0.663912 5.26847 94 51 4
-0.13676 0.663043 5.22976 208 172 16
-0.264014 0.737719 5.3696 178 135 11
-0.273107 0.736116 5.33085 158 113 2
-0.318981 0.738205 5.33735 152 122 20
-1.34285 0.802152 5.88334 138 100 48
0.274445 0.829502 5.52048 144 108 72
0.111827 0.827132 5.55788 151 114 60
0.0899162 0.850153 5.50911 132 92 15
-0.000949763 0.816025 5.35587 216 184 0
-1.28851 0.862847 5.81789 142 104 49
-1.26899 0.854806 5.7322 138 99 47
-0.0880854 0.892164 5.37729 120 94 50
0.324083 0.933313 5.36425 142 108 67
-1.51368 0.8274 5.24455 140 105 60
-1.62675 1.06125 6.06049 139 101 54
0.0966092 0.927451 5.15085 140 102 59
-1.23285 0.9601 5.4885 138 98 48
-1.16294 0.97162 5.48941 140 100 50
-1.23848 0.980526 5.45522 134 98 41
0.290575 0.895801 4.89777 144 109 66
-1.1248 0.928259 5.25381 138 100 46
0.00645518 0.949697 5.08916 141 104 42
0.062431 0.933674 5.01233 136 97 52
-1.18487 1.0182 5.46526 140 102 46
-1.06706 0.948446 5.23162 143 104 44
-1.10854 0.976535 5.33903 136 98 44
0.455432 1.04381 5.23717 142 106 64
-0.010702 0.935733 4.94085 136 96 45
-1.3718 0.942824 5.2018 132 94 54
-1.133 0.985765 5.28589 136 94 36
0.546975 1.09638 5.35709 146 112 70
-1.47673 1.04064 5.49797 134 96 50
0.355979 0.961343 4.91767 148 112 70
0.415949 0.976894 4.9487 142 108 66
-0.0204732 0.961289 4.97144 138 96 42
0.00448206 0.959051 4.93931 135 96 46
-1.3336 0.993527 5.27974 133 94 46
-1.17728 1.08983 5.53796 138 98 36
-1.15653 1.02859 5.32485 134 94 49
-0.253552 0.994537 5.05382 139 92 11
0.134972 0.948873 4.8557 142 110 62
-1.00227 0.935938 5.01009 142 102 42
0.142204 0.994805 4.98612 140 103 58
0.0975385 0.95176 4.82393 140 104 58
-1.61338 1.18247 5.8244 137 98 50
0.618143 1.15715 5.38315 140 106 64
-1.10082 1.0559 5.34419 141 102 46
0.12965 0.952079 4.81414 146 112 66
-0.0932948 1.02728 5.05699 146 104 20
-1.2934 1.12147 5.54491 134 92 41
-1.25354 1.01843 5.22635 138 94 46
0.159707 0.985777 4.90348 152 120 72
-0.0413264 0.976968 4.88595 138 96 42
0.348808 0.96677 4.77182 146 113 59
-0.0435976 0.609295 5.42912 244 130 5
0.162631 0.877815 5.34408 151 114 65
-0.610427 0.504022 5.94177 181 164 150
-0.638955 1.01958 5.24768 146 109 48
-0.0983097 -0.468739 5.77542 188 198 208
-0.237982 -0.340317 5.30801 202 204 215
-0.167453 -0.270972 5.37615 176 140 148
-0.233292 -0.139797 5.26785 174 50 32
-0.228234 0.0945196 5.24305 184 38 16
-0.146413 0.124133 5.26862 184 124 126
-0.183399 0.243942 5.22652 210 219 203
-0.288686 0.349342 5.15244 183 93 88
-0.402943 0.354912 5.31192 189 182 167
-0.427435 0.372269 5.23887 192 166 164
-0.431189 0.378462 5.269 195 182 187
-0.42566 0.378811 5.27026 168 123 120
-0.234846 0.395829 5.24995 178 124 124
-0.44094 0.445952 5.28998 199 170 176
-0.435483 0.453781 5.26495 178 140 144
-0.334736 0.487879 5.23122 127 148 142
-0.230387 0.555004 5.28437 170 148 14
0.154606 0.617596 5.56545 146 130 125
-0.290804 0.566949 5.26782 122 71 17
0.0764627 0.660751 5.42167 151 120 61
-1.37188 0.644666 5.29001 160 138 120
-1.43969 0.845586 6.20924 134 98 48
0.247146 0.835363 5.40425 142 108 70
-1.37873 0.855997 5.99658 138 99 44
-1.31314 0.767379 5.43807 139 100 52
0.0267847 0.871683 5.41486 127 86 8
-1.53416 0.883199 5.99585 136 100 51
-0.350042 0.886944 5.56947 106 54 0
-0.343958 0.891816 5.57114 96 46 0
-1.43958 0.894264 5.99397 131 96 48
-0.0427828 0.871289 5.33452 114 73 3
-0.0527423 0.873196 5.33346 117 76 8
-1.20351 0.936059 6.04055 138 100 44
-0.07701 0.886493 5.35955 120 76 2
-0.0763127 0.89483 5.3936 124 84 12
-1.43119 0.894073 5.78004 138 98 56
-1.15239 0.906335 5.36193 137 96 44
-1.16125 0.925058 5.35521 134 96 40
0.00803222 0.949517 5.09786 140 102 48
-1.337 0.936961 5.40357 138 99 51
-1.51013 0.993188 5.68513 134 92 50
0.0101878 0.95886 5.04813 142 104 48
0.324807 0.990103 5.06844 142 108 65
0.290858 0.99603 5.08425 142 108 62
0.337959 0.981054 5.02477 140 103 62
0.0747774 0.991129 5.11301 137 97 52
-1.23689 0.97694 5.45932 136 96 44
0.240318 0.997427 5.05032 142 108 64
0.304369 1.01399 5.08825 142 109 65
0.224743 0.989548 5.00208 144 108 66
-1.28967 0.980338 5.3402 145 108 54
0.501433 1.08759 5.2118 142 110 66
0.468354 1.03203 4.98706 144 110 66
0.275549 1.04881 5.10416 143 108 66
0.238563 0.982247 4.88051 145 110 66
-1.24492 1.00175 5.31719 134 93 40
-0.0322541 0.987313 4.92621 138 99 46
-1.17476 0.974765 5.15583 137 95 44
-1.17919 0.9768 5.15265 138 97 40
0.0427398 1.1246 5.27483 142 103 42
0.419491 1.00121 4.78604 143 112 67
0.269955 1.02911 4.88872 145 110 64
0.539598 1.1266 5.14445 144 111 66
-1.44037 0.999462 5.2546 136 98 46
-0.00798687 1.05604 5.02295 143 105 53
0.0208075 0.997946 4.8551 142 103 55
0.0217762 1.16464 5.36036 144 104 34
-0.0426575 1.07179 5.03913 140 100 34
0.279478 1.0135 4.79589 138 104 63
0.336322 0.951134 4.57939 142 111 68
-0.073509 1.05955 4.99959 143 102 38
-0.0203601 1.07938 5.00614 142 102 47
0.139067 1.05179 4.90327 139 102 57
0.272406 1.04402 4.85163 144 110 64
-0.203091 1.12671 5.18268 140 96 12
-0.0616803 1.05744 4.92098 144 102 43
0.00995488 1.05899 4.91676 142 102 53
-0.182322 1.13316 5.18866 141 96 22
-0.0922477 1.08201 4.99778 142 101 30
-1.3271 0.98547 5.00628 135 94 53
0.108232 1.11157 5.00766 139 103 51
0.277604 -0.05181 5.91949 198 210 224
-0.184774 1.02383 5.34957 140 92 2
-0.374972 0.892618 5.39314 136 90 13
0.419534 0.946762 4.96966 147 115 66
0.449729 1.0214 4.67403 144 108 62
-0.14213 1.03066 4.80991 141 98 24
0.143347 0.99298 4.61736 147 111 61
-0.855881 1.0354 4.94244 142 102 34
-0.354821 -0.484297 5.6138 193 203 214
-0.361286 0.993897 5.17773 142 101 34
-0.0967808 -0.409054 5.76074 181 192 199
-0.145646 0.504581 5.29822 226 192 0
-0.0473117 0.56008 5.36769 243 216 74
-0.0684151 0.571045 5.40542 238 185 68
0.584424 0.685492 6.05823 150 118 82
1.65641 0.702686 5.91988 138 127 114
-0.272458 0.738708 5.33805 159 116 1
0.370667 0.845114 5.44969 145 111 67
0.16099 0.849485 5.36982 157 123 71
0.377872 0.915501 5.05695 145 110 66
-1.67933 1.11065 5.65444 138 102 57
0.584916 0.998701 4.99383 146 111 61
0.141546 0.972143 4.85815 155 124 70
0.114913 0.995393 4.68577 144 102 52
0.0834797 1.11046 5.01105 138 96 40
-1.07609 1.09206 4.94379 140 102 45
-0.159721 1.16416 5.15953 138 94 20
-0.232338 -0.168951 5.30063 170 33 18
-0.231166 -0.107282 5.30681 186 74 46
-0.163688 1.11176 5.13839 136 88 14
-0.225236 -0.346643 5.35071 203 170 176
-0.259926 -0.31477 5.34821 181 116 117
-0.0825018 -0.129974 5.92909 177 186 194
-0.0776945 -0.0924906 5.88952 180 188 195
-0.0716091 0.00619646 5.9328 180 188 198
-0.0692445 0.055631 5.95122 178 186 194
-0.139153 0.120654 5.27203 182 136 142
-0.0652384 0.114807 5.96176 186 192 200
-0.327808 0.241447 5.26835 182 184 186
-0.243697 0.238796 5.35486 213 216 192
-0.0325458 0.339481 5.4497 186 179 143
-0.308746 0.352376 5.17737 140 52 62
-0.0581385 0.354155 5.32137 200 210 178
-0.329025 0.418591 5.0971 213 65 77
-0.0905335 0.430263 5.28372 202 212 206
-0.302544 0.433077 5.12728 180 112 139
-0.239821 0.432671 5.12645 147 114 93
-0.182888 0.488067 5.27343 208 170 3
-0.362941 0.520933 5.25907 130 128 81
1.61383 0.587835 6.17442 159 164 167
1.64879 0.604065 6.24362 160 156 155
0.832193 0.63764 6.0793 169 158 140
0.673515 0.659318 6.18318 160 141 120
0.233176 0.685222 6.14289 142 126 120
-0.022737 0.622897 5.32028 249 138 58
-0.380357 0.662335 5.36904 137 99 20
-0.233744 0.661501 5.30451 168 141 43
-0.12707 0.665708 5.25685 200 166 4
-0.280829 0.725452 5.3519 174 152 70
-0.32617 0.727977 5.3144 142 142 92
-0.283765 0.774469 5.42175 178 132 4
0.174478 0.805423 5.56724 146 106 66
0.0209229 0.780829 5.36954 156 120 4
0.231904 0.825225 5.62038 140 103 64
0.101379 0.826282 5.51657 146 102 31
0.332156 0.823034 5.49246 146 112 68
-0.378715 0.860666 5.55181 132 86 14
0.0739947 0.843736 5.44906 116 69 4
0.230422 0.839987 5.45256 142 102 58
0.271252 0.875693 5.2099 138 104 63
0.234031 0.879332 5.1959 140 100 64
0.0515867 0.896695 5.17251 138 92 21
0.0640772 0.929767 5.00345 136 90 28
0.546096 0.904672 4.91183 143 106 59
0.140902 0.934574 4.95085 142 102 39
0.441003 1.00055 5.16956 142 107 60
-1.4839 1.12428 5.45923 136 98 51
0.0734328 0.944625 4.88008 138 94 31
0.544711 0.926536 4.87131 142 106 59
-1.16948 1.09345 5.20965 144 105 58
-1.21769 1.068 4.91724 138 99 52
-0.110775 1.15795 5.25685 137 92 19
-0.0925604 -0.316402 5.8098 184 192 196
-0.348673 0.0186394 5.22699 186 187 194
-0.224513 0.0687457 5.28994 200 80 38
-0.19528 0.156105 5.26968 231 232 217
-0.270427 0.251674 5.18234 208 211 187
-0.0432006 0.367871 5.34608 224 204 0
-0.0634605 0.403034 5.31829 223 208 75
-0.274528 0.445063 5.20783 158 30 38
-0.354057 0.466819 5.15125 146 96 84
-0.314821 0.551393 5.23166 170 209 200
0.591062 0.665937 6.19063 159 142 130
0.294517 0.771801 5.62625 145 110 73
-0.308497 0.744313 5.36834 142 104 6
-0.306081 0.771878 5.40198 176 127 3
0.0732748 0.876899 5.29967 149 103 26
-0.118468 -0.76909 5.63954 180 188 188
1.22071 -0.719414 5.62535 175 202 240
-0.106311 -0.534332 5.74011 181 190 194
-0.100624 -0.495892 5.73122 181 190 194
-0.100799 -0.468773 5.75146 182 190 194
-0.258439 -0.319367 5.34943 205 149 148
-0.201294 -0.309965 5.33294 200 171 183
-0.137296 -0.105017 5.3482 140 74 93
-0.0772635 -0.129273 5.86575 176 184 190
-0.221401 0.0788922 5.27423 187 52 20
-0.175012 0.129471 5.27209 220 214 196
-0.221555 0.212361 5.28191 123 116 104
-0.238392 0.237428 5.38702 206 212 197
-0.323445 0.24701 5.2623 167 166 154
-0.271218 0.243789 5.37173 229 232 202
-0.297328 0.277689 5.30853 158 150 130
-0.136836 0.278071 5.25956 174 194 214
-0.307067 0.340396 5.24259 168 90 99
-0.441064 0.413666 5.1843 150 78 72
-0.251202 0.406796 5.15893 164 100 127
-0.25115 0.412739 5.16094 177 121 144
-0.251703 0.438333 5.18523 124 78 59
-0.00481626 0.450809 5.35881 240 213 115
-0.316125 0.502183 5.29471 175 171 116
-0.150828 0.552271 5.30768 156 122 37
0.0135727 0.557407 5.51355 234 196 7
0.0371854 0.603824 5.3806 230 196 31
0.0669861 0.631202 5.53823 208 172 46
0.16914 0.683112 6.07403 147 134 134
0.444692 0.671718 6.13992 153 136 128
0.540339 0.668827 6.17722 166 150 142
0.65672 0.663322 6.19805 166 149 135
0.662579 0.657134 6.13641 160 139 121
0.948106 0.63733 6.13772 162 146 130
1.08152 0.647169 6.30688 163 146 128
-0.0390852 0.638903 5.37372 197 118 9
0.0433423 0.639188 5.35714 241 218 66
-0.137087 0.658879 5.29094 60 11 1
-0.13073 0.662569 5.27597 144 104 17
0.177813 0.73384 5.8587 135 100 75
0.178695 0.748995 5.8645 143 112 78
-0.328656 0.73632 5.3257 146 124 56
-0.323235 0.737374 5.32994 154 134 68
0.144648 0.78222 5.66838 140 104 77
0.0187088 0.77276 5.33999 172 137 10
0.177871 0.805527 5.59483 144 104 68
0.283986 0.797199 5.59261 138 100 64
0.102789 0.823048 5.56514 136 93 21
0.339491 0.829112 5.61887 142 105 67
0.314187 0.850585 5.7673 138 102 67
0.0905521 0.839244 5.60729 120 74 4
0.306282 0.877039 5.72827 143 108 63
0.055435 0.851331 5.44858 97 52 8
0.258618 0.842456 5.48574 138 101 62
0.294708 0.84054 5.46765 142 108 66
-1.30519 1.01712 5.61665 138 102 66
0.281456 0.846935 5.29833 141 105 65
0.247746 0.854706 5.31376 137 100 62
1.23272 0.79714 5.40935 136 104 64
0.24214 0.853517 5.24947 139 104 64
0.154483 0.879073 5.25889 150 114 58
0.297507 0.926274 5.37033 140 104 60
1.56805 0.821162 5.21596 126 107 84
-0.11781 0.963436 5.12147 141 96 6
0.245036 0.917147 5.02422 140 104 52
0.396581 0.946756 5.12539 144 112 62
0.234034 0.925233 4.94678 138 100 54
0.186887 0.95422 5.04674 140 101 54
0.144418 0.942381 4.92453 144 101 45
0.536897 0.989031 5.07774 144 107 58
0.210519 0.96992 4.76241 146 106 55
0.247807 0.960355 4.73393 136 97 51
0.743344 0.667798 5.63008 154 120 76
-0.0306137 0.295291 5.73328 230 236 222
0.0275746 0.398697 5.65104 198 208 218
