ply
format ascii 1.0
element vertex 1187
property float x
property float y
property float z
property uchar red
property uchar green
property uchar blue
end_header
0.623858 0.00903164 0.0883961 0 255 0
0.276163 -0.0174234 -0.0330978 0 255 0
-0.190186 -0.00747426 0.00131865 0 255 0
-0.769063 0.141649 -0.00621559 0 255 0
-0.38553 0.100151 -0.140955 0 255 0
0.583611 0.0635431 -0.323183 0 255 0
1.27656 0.0621981 -0.419818 0 255 0
1.83536 0.0544072 -0.632361 0 255 0
2.71084 -0.00726669 -0.496817 0 255 0
-2.16856 0.274318 -0.670118 0 255 0
3.87169 1.27648 12.7835 0 255 0
6.52023 -0.866018 11.3013 0 255 0
0.544336 -0.826043 -0.0393701 0 255 0
-0.763787 -1.96038 6.53902 189 196 205
-2.62202 -2.25383 7.85774 186 188 192
0.115384 -1.5996 6.38596 166 114 122
0.0452432 -1.54252 6.31028 228 180 190
0.177567 -1.49788 6.27776 172 120 133
0.186302 -1.48574 6.27816 193 154 167
-4.32092 -2.18207 10.6755 182 182 188
1.85615 -1.81337 8.6532 195 208 227
1.59827 -0.648431 3.26021 184 204 234
0.11524 -1.05408 6.22906 182 78 38
-0.0132252 -1.01126 6.28998 165 134 137
0.336923 -0.683318 6.23514 190 32 62
0.292791 -0.587791 6.0656 192 46 70
0.152104 -0.57953 6.187 200 90 38
0.152325 -0.571715 6.25995 188 71 26
0.0214143 -0.453857 6.20217 142 32 19
0.491886 -0.482933 6.34367 172 73 100
0.376364 -0.449623 6.25912 174 128 134
0.192612 -0.43384 6.13705 167 108 87
0.203373 -0.435595 6.16209 164 111 92
0.117069 -0.420934 6.13767 122 48 26
0.502127 -0.449737 6.36707 204 202 216
1.2461 -0.270819 5.10341 192 204 221
0.639137 -0.399285 7.80656 191 201 213
0.0410388 -0.294346 6.22355 202 194 140
0.245097 -0.222177 6.0346 164 162 162
0.155564 -0.20992 6.09933 182 176 136
0.442551 -0.175541 6.08689 201 204 184
0.456383 -0.183009 6.15402 200 207 190
-0.0526513 -0.150288 6.03825 179 182 177
-0.056302 -0.139805 6.07944 164 164 150
0.483575 -0.104276 6.08398 177 194 196
0.435547 -0.0798997 6.12631 177 192 201
0.19434 -0.0585772 6.02462 96 54 28
0.380368 -0.0602535 6.10112 162 174 184
0.418819 -0.0578225 6.18022 180 206 232
0.0924706 -0.0387004 6.15771 128 112 84
0.25439 -0.0382385 6.04967 159 130 128
0.440414 -0.0488026 6.19478 196 220 235
0.457671 -0.00370127 6.33257 206 229 234
0.197754 0.0131557 6.0278 177 174 152
0.535495 0.00220919 6.35957 196 218 229
-0.0594565 0.0805843 6.43276 186 141 116
0.554652 0.0776987 6.19501 194 212 218
-0.240645 0.113205 5.95613 166 112 114
0.0826992 0.153525 6.08871 200 134 130
0.888211 0.177048 7.94256 172 180 196
0.176124 0.219826 6.06637 178 151 125
0.134344 0.22387 5.95191 206 173 173
-0.191723 0.237478 5.74948 145 40 25
0.175785 0.230491 6.07152 168 140 117
0.17791 0.244187 6.0765 152 125 100
0.561807 0.267001 6.24693 222 196 21
-0.0233612 0.303032 5.76028 188 86 90
0.228748 0.310864 6.07681 172 168 145
-0.348882 0.331904 5.90723 189 153 137
-0.0383704 0.304829 5.69949 192 62 78
0.157036 0.317285 5.91188 186 166 153
-0.0486342 0.32592 5.70403 144 40 57
0.124563 0.357448 6.10929 144 72 18
0.696479 0.349387 6.42814 214 184 43
0.158149 0.355937 6.03256 133 115 62
-0.330922 0.392555 5.97155 122 73 63
0.158222 0.396133 6.17787 116 96 30
0.793909 0.413749 6.6737 204 190 116
0.497771 0.416701 6.31665 227 198 28
-0.188044 0.41777 5.81085 140 100 92
-0.158915 0.432984 6.0485 148 122 97
0.575314 0.41848 6.33374 242 209 46
0.242306 0.441958 6.22458 162 140 46
0.106143 0.454189 6.12305 148 110 0
0.0538495 0.473096 6.12645 142 105 0
0.383997 0.483683 6.29131 222 188 0
0.561191 0.499345 6.36282 232 209 74
0.697521 0.480085 6.33619 221 172 0
4.35572 0.523006 8.32287 156 160 165
4.39088 0.541515 8.46641 157 158 162
0.754209 0.521517 6.49837 202 162 4
4.43 0.551123 8.44119 150 148 142
0.490024 0.53237 6.21775 218 194 66
0.82571 0.548245 6.52336 208 184 96
0.588524 0.540296 6.43401 245 213 46
0.413332 0.571356 6.28222 223 194 8
0.0763025 0.551845 6.14901 148 104 0
0.0697315 0.595339 6.21355 149 106 0
0.755865 0.581898 6.41005 170 126 60
0.19984 0.588784 6.13584 156 129 55
0.373934 0.612702 6.38716 164 133 46
2.16817 0.755492 8.47643 166 152 140
2.15803 0.74005 8.3368 165 150 138
1.86911 0.780342 8.42413 164 149 138
1.74875 0.778929 8.3314 161 144 138
0.026674 0.634501 6.1052 166 144 104
-0.232267 0.670813 6.44791 176 153 66
0.509679 0.680355 6.45093 231 124 0
1.55399 0.845287 8.20375 136 108 78
-0.257052 0.757121 6.50079 167 152 125
1.88103 0.836147 8.00574 152 120 82
1.45274 0.845052 7.69266 138 106 74
1.75904 0.825505 7.82403 146 114 73
1.77716 0.801643 7.60867 150 118 78
-0.255926 0.792802 6.6985 168 142 72
1.55581 0.841889 7.71822 144 112 74
0.443665 0.715215 6.19055 122 88 90
1.70066 0.845526 7.49952 146 114 72
0.0909073 0.73574 6.18323 192 98 2
-0.0851757 0.773671 6.16336 144 132 64
0.903144 0.782577 6.5671 162 126 48
0.677828 0.78172 6.3621 238 122 26
0.0502282 0.793554 6.16624 142 97 78
0.571714 0.791156 6.31995 237 140 18
1.26923 0.846749 7.13443 136 104 73
-2.63271 1.16357 8.15083 150 125 92
0.118322 0.825676 6.26026 155 96 0
0.363387 0.825803 6.27666 73 18 15
0.322357 0.816614 6.19745 65 12 9
1.07055 0.94667 7.29545 139 106 72
0.421561 0.849476 6.19876 62 12 2
0.00395656 0.873278 6.10698 150 182 170
0.205463 0.879479 6.21077 136 100 22
1.10487 1.03746 7.54791 136 102 72
0.0036812 0.887349 6.11197 147 182 174
1.08783 1.02982 7.39368 140 106 74
0.907716 0.930907 6.57497 167 126 34
-0.00310383 0.929672 6.21013 148 182 174
0.750282 0.925166 6.36432 138 110 20
0.759725 0.94426 6.4211 108 89 31
0.0306753 0.973462 6.20575 148 190 190
1.51698 1.09239 7.19948 143 110 66
1.18257 1.07758 6.92123 138 104 66
0.866254 1.05705 6.48942 214 185 77
0.0201469 1.03976 6.20358 138 106 20
-2.47361 1.35188 7.43935 140 104 48
1.18171 1.12186 6.98312 143 110 68
0.736757 1.0662 6.36525 208 161 0
1.09709 1.15475 6.96998 144 110 68
1.16135 1.15674 6.99911 142 106 66
1.15565 1.16681 6.96804 143 104 66
0.878086 1.12964 6.66787 212 186 42
0.781184 1.11544 6.44741 170 144 86
0.958251 1.18178 6.83673 144 106 49
0.854591 1.14139 6.49761 195 168 2
1.32192 1.19781 6.83943 140 103 64
1.68266 1.15825 6.56832 141 108 64
1.02729 1.2406 6.67639 143 102 55
0.0659116 1.22284 6.3379 177 126 0
0.0557784 1.27958 6.51459 178 126 0
0.240997 1.25321 6.49484 192 142 0
1.44835 1.22572 6.61833 140 106 66
0.888614 1.27465 6.57004 106 61 2
-2.6833 1.50372 6.98094 133 97 56
1.35721 1.24967 6.56924 136 100 60
4.54441 1.57548 8.70348 136 106 64
0.845149 1.28677 6.48853 98 57 9
1.33806 1.28298 6.48347 144 109 68
0.236244 1.34595 6.40084 189 136 0
1.03142 1.33941 6.68157 144 103 50
1.32457 1.29568 6.49057 144 110 64
0.719295 1.33454 6.40052 92 54 0
1.30306 1.29471 6.31744 144 109 64
0.0406821 1.40381 6.48518 76 38 0
0.949487 1.32555 6.33738 142 102 42
-2.67154 1.57613 6.78411 132 95 50
1.26583 1.32986 6.36113 144 104 62
-2.13704 1.60506 6.81616 137 100 44
0.150498 1.41718 6.44358 127 78 1
0.336711 1.40517 6.37021 119 72 1
0.408042 1.40546 6.39523 122 73 4
1.36354 1.3593 6.36892 136 101 56
-2.07343 1.58738 6.47009 134 97 40
1.24934 1.37235 6.19066 140 104 60
-2.13997 1.67628 6.4655 133 96 48
2.36992 1.03787 4.7876 144 112 64
-1.74311 1.62853 6.31346 136 99 38
-2.10835 1.62401 6.23809 129 95 52
-2.58074 1.6733 6.26343 134 96 53
4.17429 1.60821 7.59575 138 110 66
-1.89603 1.66687 6.41137 138 101 44
-2.25234 1.73628 6.39776 132 92 51
-2.48673 1.72888 6.20036 134 100 54
-2.3157 1.70469 6.06991 132 96 50
-3.01156 1.81943 6.46457 130 93 44
-2.45848 1.71835 6.13471 130 92 45
-2.08781 1.70219 6.09914 132 96 45
-2.56402 1.71323 6.14736 128 96 52
-2.34502 1.72647 6.13119 137 100 57
-2.28637 1.79816 6.28627 132 91 48
4.91712 4.0332 16.2963 142 108 58
-1.31375 1.67591 6.00753 135 98 36
-2.31821 1.81928 6.24827 130 94 44
-1.99223 1.70067 5.96027 134 100 42
1.77892 0.768769 3.11804 141 112 66
-2.74299 1.8602 6.14355 134 98 48
-2.31338 1.78764 5.88033 136 100 47
-1.87143 1.65798 5.54379 135 97 50
1.20788 1.52461 5.55255 144 112 64
-2.29344 1.86301 5.99357 133 92 45
4.05669 2.05472 7.66043 140 109 62
-1.76305 1.90255 6.18537 132 97 32
-0.540948 1.66868 5.55075 144 106 39
-2.01929 1.90672 6.23611 137 100 46
0.592489 1.72847 5.9189 137 90 8
-1.90394 1.72651 5.44015 133 94 38
0.795689 1.76165 5.99068 134 88 26
-2.3339 1.79451 5.63435 128 92 43
-2.43702 1.77545 5.58314 131 94 48
-1.27686 1.66101 5.37538 140 102 37
-2.13427 1.95838 6.17652 134 98 41
-1.91948 1.92484 6.07569 139 103 40
0.863856 1.7288 5.75738 136 96 36
1.17416 1.58547 5.27244 137 103 52
1.36742 1.54601 5.24605 136 102 50
2.50654 2.13048 7.34664 138 102 58
2.24341 1.5834 5.49739 142 110 64
3.37805 1.66009 6.14081 140 109 69
0.320589 -2.14371 7.17208 188 198 209
0.324388 -2.03513 7.02904 186 196 207
0.325633 -2.07654 7.22708 184 195 204
0.0176569 -1.38117 6.29126 143 66 71
0.11357 -1.09499 6.23198 178 62 26
0.351351 -1.00322 6.31879 151 94 110
-0.0147865 -0.888722 6.29639 141 103 104
0.123299 -0.475441 6.14869 171 14 6
0.430288 -0.459182 6.43057 154 113 126
0.137296 -0.369627 6.13332 74 65 58
0.526867 -0.313028 6.42269 197 216 228
-0.0416785 -0.135694 6.17108 187 189 170
0.500675 -0.110728 6.12928 194 210 214
0.489649 -0.0497192 6.0896 198 219 228
0.058872 -0.0323044 6.241 149 135 90
0.180442 -0.010274 6.07334 176 172 146
0.233917 0.0474273 6.30641 186 186 168
0.466971 0.0758242 6.22093 204 224 232
-0.107435 0.120112 5.82615 179 74 74
0.00106983 0.130257 5.89305 157 56 70
0.516946 0.130571 6.15511 196 216 221
-0.034134 0.304987 5.74999 202 77 89
-0.356391 0.34242 5.95492 199 166 159
0.116066 0.383315 6.03304 130 78 12
0.0139026 0.386687 5.85443 218 225 221
0.715821 0.407522 6.4529 226 192 28
0.505478 0.440713 6.37597 232 203 40
0.00156221 0.45863 5.99817 144 139 92
0.739625 0.482458 6.4738 232 193 22
0.763261 0.568051 6.38678 198 154 37
0.0305127 0.652896 6.10347 155 110 78
0.485148 0.671108 6.1579 232 120 0
0.376783 0.689347 6.15249 58 36 44
0.488136 0.688169 6.16611 228 114 0
0.473565 0.72469 6.13633 237 172 88
-1.96991 1.11912 8.33072 158 132 88
0.910022 0.796127 6.60272 160 124 48
1.35032 0.888663 7.38581 138 104 76
-2.49238 1.16145 8.21747 148 122 90
0.449546 0.787045 6.15139 140 78 14
0.822504 0.808414 6.37913 232 196 6
0.100501 0.821602 6.2293 170 112 6
0.916355 0.864859 6.57674 160 126 48
-0.091517 0.934047 6.2544 158 118 5
-2.44539 1.27162 7.92748 138 98 38
0.906274 0.985043 6.65158 187 151 74
0.873051 1.01932 6.51091 198 168 72
-0.109597 1.0776 6.38018 168 121 2
0.848602 1.15804 6.49468 196 166 6
0.16117 1.16611 6.289 190 140 0
1.74908 1.23724 6.4409 145 112 70
1.70683 1.23902 6.50794 146 113 72
0.819232 1.30573 6.50494 104 56 2
1.67043 1.30098 6.69417 144 110 68
1.42695 1.28806 6.38262 143 106 66
1.55664 1.29568 6.37609 143 108 66
0.45956 1.40607 6.44443 140 101 26
1.3431 1.33097 6.2868 138 100 60
0.283203 1.4043 6.36574 140 90 5
0.643097 1.41689 6.3076 148 98 0
1.06921 1.43857 6.03982 145 109 61
0.763066 1.57781 6.10743 139 94 16
0.47384 1.6117 6.00109 143 96 6
-2.35552 1.77065 6.08269 132 94 51
-2.34132 1.80692 5.91815 144 106 52
2.72428 -1.78138 7.73876 193 210 238
1.59104 -0.685294 7.16234 198 212 233
-4.31485 0.0494528 8.46009 180 180 188
0.529391 0.306803 6.22604 192 186 150
0.800571 0.456196 6.57295 212 194 94
0.294294 0.476973 6.20108 208 166 3
0.265633 0.525405 6.13457 208 172 2
0.43032 0.616023 6.16014 186 145 56
-0.0780561 0.778389 6.23988 158 146 84
0.0728353 0.960124 6.23769 192 196 124
0.554845 1.48356 6.42791 146 98 0
0.485799 1.7359 6.05188 143 98 8
0.378261 -0.581118 6.24515 200 34 66
0.431919 -0.497166 6.24928 204 38 66
0.346876 -0.0592011 6.0504 142 142 126
0.0401102 -0.0430868 6.15988 150 135 93
0.577182 0.121198 6.26364 216 214 128
0.399568 0.592236 6.21002 170 143 44
0.0318971 0.673026 6.08506 192 164 135
0.768268 0.766934 6.44139 212 108 2
-2.53958 1.30198 7.75019 135 98 46
0.174012 0.978065 6.23941 192 144 2
-2.40238 1.4332 7.23964 140 106 52
-0.1948 1.35235 6.82493 129 78 10
-0.054959 1.38091 6.53953 108 57 3
1.75445 1.31997 6.19312 146 111 68
2.27226 1.49623 6.12573 142 109 68
0.315191 -2.21254 7.13856 188 196 207
0.325095 -2.01379 7.44625 183 194 202
0.341937 -1.82578 7.24811 184 194 202
0.107972 -1.42659 5.74774 219 186 188
0.367702 -1.6748 6.76744 186 196 204
0.183084 -1.50971 6.4488 162 113 127
0.173069 -1.56728 6.88948 151 106 120
0.181457 -1.54139 6.8399 141 88 102
0.216013 -1.422 6.47844 152 99 113
0.0141187 -1.31125 6.25383 172 116 118
0.370452 -1.40827 7.37024 188 198 204
0.140525 -1.03477 5.88908 173 58 24
0.418999 -0.810975 6.50811 176 140 152
0.138417 -0.552956 6.43801 184 52 18
0.161258 -0.477393 5.98242 186 39 19
0.352757 -0.450902 6.15652 200 148 150
0.177366 -0.435031 6.15155 122 46 31
0.375416 -0.475211 6.66244 142 136 139
0.446994 -0.450581 6.31472 171 124 150
0.120863 -0.426887 6.20948 148 90 55
0.138252 -0.393394 6.12488 62 53 31
-0.0258508 -0.397998 6.39284 136 58 40
-0.035373 -0.39251 6.35109 160 113 112
0.168275 -0.221633 6.11691 185 169 114
0.547758 -0.203838 6.33786 201 222 236
0.547447 -0.180877 6.46469 199 222 234
0.540741 -0.153137 5.63307 161 178 191
-0.0174992 -0.142262 6.19357 198 202 182
-0.0445707 -0.12251 6.03717 165 159 144
0.0572121 -0.0456531 6.1154 134 119 80
0.0731502 -0.0412911 6.08457 133 118 78
0.574548 -0.0152972 6.24412 193 212 218
0.601551 0.0493525 6.42162 177 174 152
-0.176258 0.0817728 6.13179 152 130 128
-0.155151 0.0898031 5.81194 161 99 102
-0.0666319 0.0860436 6.26415 168 84 85
0.597585 0.0559377 5.42178 200 196 154
-0.198057 0.0916042 6.01529 180 120 124
0.59338 0.0717953 5.76502 210 205 131
-0.185494 0.101046 5.67113 179 119 121
-0.0360815 0.0974092 5.88846 194 90 91
0.593619 0.0846961 5.82921 213 206 103
0.642015 0.132489 6.47276 201 198 158
-0.223929 0.178585 5.92148 123 56 48
-0.316248 0.212306 5.91342 178 126 114
0.0983759 0.201888 5.81796 203 138 154
0.567535 0.229581 7.07333 226 214 95
0.569611 0.221819 6.24754 224 206 68
-0.189485 0.259008 5.8292 165 33 18
0.565721 0.24012 6.26119 226 208 66
1.79843 0.114924 3.52726 182 190 200
0.563742 0.249881 6.23411 224 201 35
-0.100095 0.267709 5.75255 202 38 38
0.528254 0.294553 6.21696 196 193 169
0.518566 0.303516 6.19173 232 230 190
0.644876 0.327399 6.2998 226 190 0
0.084942 0.343949 5.85162 202 46 78
0.293662 0.445606 6.17716 213 173 0
0.283454 0.454388 6.1222 198 155 2
0.159304 0.58964 6.17198 180 159 2
0.198303 0.580433 6.02965 178 156 52
0.423929 0.575409 6.05971 231 198 11
0.401713 0.618692 6.36647 81 50 18
0.422867 0.592833 6.10899 218 186 56
2.08777 0.725663 8.13338 159 142 124
0.528341 0.627779 6.43606 236 188 22
0.62475 0.564638 5.77541 246 170 75
1.79846 0.760434 8.20996 168 156 146
1.84659 0.865475 9.27661 162 147 140
1.77663 0.776449 8.32649 163 150 140
1.70272 0.860763 9.10446 156 142 140
1.60292 0.819906 8.5991 154 142 134
1.16866 0.824417 8.23295 144 128 120
0.323075 0.656676 6.13801 55 30 27
0.38389 0.569636 5.24197 47 18 17
0.461811 0.714553 6.15475 240 217 198
0.472844 0.71703 6.17862 244 180 97
0.991268 0.840578 7.06543 136 103 78
1.39443 0.792093 6.79167 144 111 77
-2.63711 1.17665 8.22746 156 134 103
-2.75376 1.18715 8.23985 156 131 109
-2.38962 1.02832 7.00064 159 138 112
-0.00278737 0.809548 6.06003 162 180 148
1.05841 0.979152 7.60808 136 104 74
1.13574 0.972746 7.4727 142 110 76
-4.18734 1.29837 8.17781 167 166 171
-4.15919 1.3132 8.18923 161 147 140
0.808192 0.858715 6.37311 240 206 14
0.445643 0.904735 6.44037 208 174 6
0.267413 0.874878 6.14366 116 83 4
0.43269 0.865807 6.12553 204 168 6
1.23447 1.00563 7.50436 136 102 72
1.23053 1.01768 7.34016 138 105 75
1.28548 1.00843 7.2029 141 108 74
1.08196 1.04594 7.22444 146 114 76
1.5137 1.34123 8.95247 142 107 66
1.37497 1.05558 6.93909 142 108 70
0.091852 1.05768 6.45842 166 118 2
1.0288 1.10211 7.02714 141 106 70
1.1946 1.10653 7.03488 143 109 72
0.105017 0.950803 5.7449 138 98 2
0.03999 1.02635 6.17078 152 132 51
-0.0090648 0.9909 5.93648 152 128 31
0.0590412 1.07528 6.42444 156 112 2
1.35229 1.15922 7.24672 142 110 64
1.09296 1.12254 6.89105 146 112 74
1.63846 0.998361 6.31878 146 114 68
1.45314 1.19378 7.31502 142 108 70
0.0918428 1.21862 7.07433 187 140 1
1.14333 1.16365 7.04207 146 104 68
1.51153 1.13498 6.91001 146 111 66
1.13635 1.17686 6.98933 145 104 66
1.37485 1.13918 6.83759 138 105 66
1.76426 1.5779 9.41986 144 110 68
1.64892 1.25489 7.43837 145 110 70
1.3736 1.18968 6.81259 140 105 68
1.2431 1.19354 6.75071 144 106 66
1.41563 1.26582 7.16263 140 104 69
1.46963 1.10463 6.05299 146 112 68
1.23311 1.24827 6.82811 142 106 65
0.924794 1.24514 6.67928 136 94 11
0.905382 1.27022 6.61645 122 78 13
0.881304 1.26803 6.53956 104 60 2
1.7402 1.2806 6.7042 142 110 67
-0.0366871 1.37169 6.48528 96 54 4
-2.64894 1.59758 6.93927 137 100 57
1.61606 1.58743 7.77253 144 108 63
0.67825 1.34096 6.37627 105 63 1
1.33453 1.30575 6.34141 134 98 66
-2.45717 1.52541 6.50495 132 97 58
0.627685 1.33594 6.26799 107 60 2
-2.43422 1.55218 6.59249 134 96 55
-2.37819 1.56692 6.65988 140 106 56
0.866614 1.36319 6.35666 138 94 12
-2.55125 1.64184 6.8143 137 100 57
0.798908 1.39998 6.40094 146 100 2
0.88009 1.42376 6.3628 138 96 19
-2.33718 1.58834 6.54803 136 100 56
1.13347 1.32465 6.06997 144 110 67
0.810087 1.42048 6.41372 145 99 6
1.13766 1.34698 6.1143 145 112 67
0.747207 1.36805 6.11114 146 101 0
-2.36482 1.54565 6.22617 134 97 58
1.3329 1.34423 6.07573 138 104 60
-2.35862 1.62401 6.50956 141 108 56
1.36807 1.4214 6.35551 140 104 63
1.71447 1.35482 6.18399 144 111 62
-2.88517 1.95566 7.67036 139 106 61
1.37393 1.44496 6.40166 139 104 65
1.32565 1.3757 5.9865 140 105 64
-2.25085 1.66602 6.5126 138 101 50
0.717379 1.54888 6.61156 140 96 2
0.656582 1.46193 6.10939 146 100 2
1.42448 1.20158 5.22816 142 104 62
1.41992 1.39821 5.93487 142 105 60
-2.515 1.67826 6.40789 138 104 58
1.31494 1.39852 5.8919 139 104 60
1.61327 1.20703 5.17091 146 112 68
-2.09715 1.6798 6.26262 138 102 58
0.829077 1.46843 5.98529 144 100 28
1.52846 1.37919 5.72585 142 106 58
0.672253 1.45463 5.80526 146 104 16
0.840284 1.49958 5.93328 143 100 23
0.572705 1.23452 4.89688 141 97 0
-2.2526 1.73512 6.26188 136 100 55
0.527694 1.61742 6.15495 144 97 4
1.40431 1.65956 6.57383 140 102 65
1.48857 1.43233 5.72705 146 110 64
-2.64072 1.77753 6.25256 136 99 54
-2.39547 1.90848 6.72517 138 102 52
1.20515 1.46964 5.68364 147 110 63
-2.44611 1.76385 6.02023 135 100 56
1.34835 1.5887 6.03687 141 104 57
-2.15892 1.79595 6.05207 136 98 50
1.69572 2.06272 7.72697 138 103 59
1.53085 1.56824 5.90496 140 104 62
-2.24918 1.73017 5.76526 140 104 52
0.799589 1.55378 5.66315 140 98 16
1.20115 1.49647 5.50353 150 116 70
1.64606 1.2355 4.62697 146 112 64
-1.88078 1.90297 6.37641 138 102 48
0.742271 1.52281 5.40115 140 94 19
-2.26962 1.89579 6.15301 134 98 46
1.93888 1.57877 5.77639 148 112 58
-2.60592 1.88418 5.90499 136 100 52
-2.12056 2.06843 6.67347 139 102 40
0.840703 1.67071 5.85628 138 94 27
1.29963 1.56578 5.57826 142 105 60
-2.13265 1.86815 6.01097 136 100 48
1.15991 1.49213 5.27541 143 104 57
-2.20582 1.86208 5.94589 138 99 50
1.1714 1.5333 5.34346 142 102 60
-2.15 1.99026 6.28046 138 102 39
1.6243 1.17496 4.14688 143 107 56
1.18104 1.57292 5.35633 139 104 60
1.67138 1.65019 5.71932 142 106 54
-2.24529 1.77342 5.41744 137 96 50
-2.44406 2.12121 6.51913 136 99 50
0.822429 2.07238 6.89443 135 91 24
-0.00694976 -1.3791 6.40735 180 130 132
1.95851 -1.89257 8.78759 198 212 232
0.179318 -1.11721 6.19356 178 40 46
0.376238 -1.26465 7.4358 188 197 205
-0.0237441 -0.105981 6.07396 180 174 154
0.112624 -0.040948 6.13405 128 114 91
0.555987 0.071861 6.20707 192 212 217
-0.231069 0.119323 5.91053 174 106 94
-0.130724 0.119808 5.83403 167 46 48
-0.335702 0.258714 5.922 176 120 110
0.719416 0.293401 6.57578 208 190 84
0.15511 0.301753 6.00511 198 201 197
0.108878 0.35479 5.90535 126 50 32
0.724868 0.417936 6.36031 248 218 62
0.799904 0.462624 6.46826 214 194 88
0.00256276 0.525388 6.09239 175 186 154
0.456325 0.535208 6.33632 226 199 26
0.170899 0.693326 6.13515 95 28 4
0.441842 0.698581 6.12677 135 86 76
1.04025 0.960867 7.76913 136 102 76
1.30055 0.897486 6.91888 137 104 74
0.927018 0.957673 6.65322 146 112 64
0.942115 1.09967 6.87528 146 108 46
-0.00654057 1.04903 6.26191 165 132 41
0.0882248 1.09179 6.33425 173 127 0
-0.204182 1.31188 6.77288 134 90 6
0.650654 1.4807 6.33239 144 97 4
0.450527 1.52625 6.45763 148 100 1
1.1607 1.46608 6.11789 154 120 66
0.456517 1.59661 6.41463 141 94 0
1.13868 1.44902 5.87225 153 122 68
0.479254 1.50953 5.81471 144 94 2
-2.19655 1.75909 5.88015 134 98 52
-1.98954 1.82507 5.83309 136 102 50
0.00101985 -1.30082 6.32256 158 106 112
0.376798 -1.34378 7.38966 186 196 202
-0.0402788 -0.450537 6.3159 177 151 154
0.632414 0.204828 6.38328 216 191 30
0.155914 -1.3135 6.33544 186 30 40
0.444993 -0.25812 6.11156 204 209 188
0.166298 0.448982 6.04841 168 134 0
0.0338275 0.47297 5.78365 156 160 114
-1.96339 1.11294 8.24723 150 120 75
-2.09643 1.12953 8.2894 156 131 93
-2.50444 1.38239 7.4876 144 106 54
0.251971 1.17286 6.89544 206 160 0
-2.36236 1.38354 7.19837 143 102 55
1.17711 1.36587 6.46182 144 108 57
1.26398 1.32408 6.24658 144 102 60
-2.1628 1.5664 6.55288 136 95 52
3.62526 1.41402 6.89797 142 108 71
1.29142 1.60894 5.45602 140 100 55
0.317919 -2.16336 7.12955 188 198 208
0.0675715 -1.5909 6.4097 203 140 145
0.110247 -1.15911 6.26477 166 38 18
0.156756 -0.536014 6.17846 182 48 16
0.16276 -0.495412 6.15619 212 74 37
-0.0337833 -0.399208 6.29274 149 76 77
0.285978 -0.385509 6.09696 60 58 66
0.0200793 -0.328248 6.49139 170 162 117
0.47699 -0.170448 6.16037 191 198 190
0.0467045 -0.0502977 6.1533 136 120 82
0.447048 -0.0560401 6.13162 182 200 210
0.0608711 -0.0429752 6.12533 132 114 77
0.312591 0.134716 6.49704 196 204 195
-0.299653 0.164129 6.15944 180 173 162
0.584194 0.151383 6.22469 216 202 81
-0.313269 0.195564 5.9002 165 140 128
-0.335045 0.238305 5.94405 190 145 146
0.56863 0.257169 6.27332 223 201 44
0.181588 0.254276 6.06794 148 122 100
0.729048 0.259175 6.67211 202 194 142
-0.0310382 0.289237 5.7114 210 66 72
0.149357 0.364462 5.94177 134 113 55
0.708034 0.387482 6.426 218 184 16
-0.333917 0.376377 5.82563 187 170 165
0.180658 0.446878 5.92235 172 144 0
-5.26178 1.07713 11.1038 177 175 182
-0.0979258 0.501886 6.0313 120 128 92
0.177554 0.584423 6.18871 166 138 0
0.443406 0.602032 6.19155 227 184 1
0.851791 0.641421 6.70654 226 188 11
0.419019 0.613488 6.21384 82 49 9
0.614228 0.62653 6.34616 234 158 73
0.816351 0.634418 6.53785 230 192 0
0.790622 0.639274 6.43203 230 182 12
0.785345 0.672945 6.40272 214 154 3
-0.14919 0.688736 6.19238 172 142 54
-1.08472 0.945676 7.48445 152 120 71
0.25142 0.762226 6.00529 60 10 16
-1.45132 0.915221 6.87114 149 119 68
-1.61557 0.961223 7.20474 152 124 80
1.33022 0.933285 7.44612 137 103 73
0.384774 0.815478 6.19991 76 20 26
-0.199154 0.868588 6.42176 158 113 5
0.434572 0.854648 6.18554 70 18 1
1.06069 0.942105 6.7896 138 103 73
0.755717 0.91142 6.40579 109 75 3
-1.53284 1.19421 7.65539 138 98 24
0.0550552 1.04957 6.30066 140 104 12
0.0267269 1.06455 6.34424 165 144 67
-0.0275899 1.06741 6.2956 164 119 1
1.38185 1.15957 6.91493 136 102 62
0.0891543 1.16438 6.60097 178 130 0
0.157785 1.19743 6.81715 187 136 0
1.5031 1.14204 6.71278 141 107 66
0.765772 1.11819 6.37001 201 166 8
1.2586 1.22424 6.81802 144 108 66
-2.74704 1.52147 7.69881 132 94 48
1.47476 1.23475 6.79027 141 106 66
-0.214447 1.31502 6.84297 126 78 6
1.39089 1.25312 6.80366 137 100 60
0.650754 1.23346 6.47595 216 180 0
0.922087 1.27517 6.68024 123 81 11
1.54566 1.28123 6.73087 143 110 64
0.887227 1.29755 6.60058 128 82 6
-2.70233 1.47887 6.83098 136 100 56
0.757653 1.32636 6.44028 115 74 2
0.505379 1.38387 6.34379 90 65 21
1.15841 1.3681 6.29007 143 108 62
-2.30914 1.51958 6.44123 133 96 46
1.15401 1.37819 6.21477 144 110 64
1.35504 1.39395 6.15983 138 102 56
-1.89071 1.60058 6.40358 136 98 42
0.717962 1.47458 6.35185 143 96 1
-2.4628 1.59947 6.37526 128 90 44
-2.30266 1.58905 6.33078 140 104 52
0.822441 1.43162 6.20648 138 96 24
-1.79658 1.64449 6.27469 136 98 38
0.929601 1.47046 6.06626 132 90 43
-2.57112 1.88291 7.07722 134 93 48
-2.05855 1.64054 6.21134 134 96 44
-1.95653 1.67952 6.17964 135 96 38
-2.05051 1.65787 6.03552 134 96 42
-1.72739 1.66738 6.08964 137 98 40
-2.13095 1.65474 5.98893 134 96 40
-2.86357 1.72693 6.02715 134 94 52
-2.55544 1.73675 6.05614 130 93 45
0.983825 1.54653 5.89605 133 92 46
-1.74556 1.75291 6.20103 140 102 36
1.8757 1.53146 5.78496 142 110 59
0.760418 1.60515 5.81022 136 93 24
-2.64094 1.85651 6.18849 132 89 50
0.662221 1.75803 6.11822 138 94 15
-1.9899 1.83927 5.92261 132 92 34
-2.75776 1.91035 6.05351 129 90 46
-1.61805 1.73215 5.48378 140 102 28
0.252731 -0.585854 6.37625 190 42 42
0.296652 -0.460215 6.16054 158 26 48
0.545679 -0.181653 6.15762 179 190 204
0.306524 0.188464 6.20162 192 198 186
0.716407 0.569073 6.6698 230 191 2
3.51036 0.671052 8.02257 136 109 74
0.159728 0.610536 6.14236 172 150 4
0.457399 0.723558 6.19868 156 138 130
-0.0599581 0.791019 6.09453 132 134 90
0.746525 0.944278 6.42029 208 180 23
-0.138342 1.02005 6.50935 164 114 0
-0.0043134 1.30821 6.44661 173 117 0
0.0835796 1.42549 6.19672 134 78 0
-1.33344 1.6043 6.38411 137 97 34
-0.732662 -1.75597 6.26634 189 198 206
0.33607 -1.94489 7.35506 179 188 198
0.235458 -1.33313 6.19673 146 97 108
-0.0147795 -0.973112 6.27861 170 136 141
-0.222078 0.131186 5.7867 201 108 95
-0.31805 0.212716 5.92415 154 91 86
-0.1251 0.519899 6.1596 122 118 55
0.593391 0.629275 6.39396 228 166 70
-0.190516 0.704788 6.48776 172 132 1
-0.38171 0.814696 6.81081 146 116 84
-3.0405 1.21403 8.34182 148 126 100
0.447195 0.861053 6.19326 160 126 13
-4.10474 1.27868 7.97873 158 148 139
0.0992965 1.07028 6.2973 163 119 1
0.419148 1.16127 6.28692 209 166 0
0.0702306 1.19614 6.39899 182 133 0
-0.204885 1.31904 6.78704 125 76 4
0.904499 1.26689 6.61213 115 74 11
0.452076 1.2687 6.40971 216 172 1
0.828505 1.31867 6.54262 108 60 4
-2.53173 1.52656 6.64496 129 94 48
-2.02738 1.58435 6.7061 140 104 36
1.35888 1.47332 6.05856 138 103 60
-2.73663 1.8282 6.30592 131 94 44
2.21845 1.53838 5.55164 139 104 60
-2.7654 1.96751 6.27042 136 96 50
0.323258 -2.05743 7.48171 179 189 198
0.110226 -1.16252 6.21782 165 30 12
0.114323 -1.08255 6.21996 179 71 30
-0.0322712 -0.131298 6.23676 192 196 173
-0.172695 0.0741943 6.35488 173 159 160
-0.332286 0.211684 5.93158 188 174 166
0.755485 0.56495 5.98982 218 170 2
1.66505 0.752997 8.005 160 146 137
-6.04551 2.02626 17.5557 177 170 160
1.55578 0.873999 7.95317 144 114 74
0.905332 0.956072 6.62108 180 138 33
-1.64243 1.27984 8.06393 136 94 21
1.39119 1.17973 6.95518 140 105 64
1.60327 1.15495 6.7146 144 111 68
1.63198 1.18719 6.42091 140 108 66
0.943411 1.31604 6.40083 140 97 45
0.578909 1.34184 6.23442 100 59 5
0.534366 1.35485 6.23629 99 63 0
1.40909 1.34027 5.99069 139 103 63
1.93811 1.5293 6.51826 143 110 63
-1.93472 1.71949 6.15547 137 98 44
1.39934 1.46396 5.60311 138 102 58
-2.00584 1.76882 6.09078 132 93 44
-2.23573 2.09567 7.22004 136 100 37
1.17344 1.53822 5.32128 138 100 56
-2.55834 1.93968 6.12388 132 93 48
0.350059 -1.64672 7.30648 179 188 195
3.24175 0.775434 7.52598 146 116 72
-3.43587 1.26006 7.14718 144 114 71
-1.06592 -1.95295 7.35974 188 192 198
2.0887 1.35983 5.99716 144 110 58
0.189139 -1.47486 6.26158 174 123 132
0.0162432 -1.34743 6.28587 176 107 117
-0.568483 -1.43077 6.82172 190 199 209
0.118007 -1.11137 6.24984 171 50 24
-0.013263 -0.988469 6.31731 167 124 132
-0.0130882 -0.975672 6.32074 163 116 125
0.142231 -0.474975 6.20411 177 26 10
0.186573 -0.430845 5.9915 150 10 18
0.142174 -0.418746 6.18506 189 142 97
0.587078 0.0857368 6.34423 195 206 212
0.0633069 0.266342 5.85279 202 64 104
-0.156662 0.288212 5.8415 176 28 12
-0.357357 0.337304 5.96611 201 172 173
-0.347094 0.371633 6.00503 190 174 178
0.187726 0.587409 6.13439 186 168 12
0.0325782 0.671926 6.15115 184 149 120
0.701216 0.695001 6.30532 235 104 0
0.385819 0.708222 6.25456 67 44 54
0.266041 0.727359 6.21099 60 26 35
-0.474749 0.94403 7.92741 150 120 89
-0.467065 0.941423 7.90367 144 112 79
-0.640453 0.974221 8.08796 151 124 88
0.169868 0.781599 6.158 142 44 21
1.32263 1.02256 7.60982 139 108 79
-0.0479787 0.835982 6.10105 144 162 131
0.761276 0.928919 6.43049 116 84 17
-2.71007 1.21568 7.98945 137 98 52
1.21354 1.12718 7.18485 142 108 72
-2.78283 1.29652 7.69222 140 98 56
0.0822404 1.06501 6.31994 163 120 1
1.44637 1.17198 6.87484 145 110 70
-2.61716 1.2361 7.29259 140 100 43
-1.4433 1.29478 7.19691 138 98 24
1.43378 1.20025 6.69403 143 109 72
1.39192 1.22749 6.82502 140 106 70
0.956555 1.25812 6.80013 130 92 29
-2.48295 1.31706 7.10418 141 102 47
-2.53767 1.32227 7.09996 134 96 53
-0.185193 1.3247 6.65737 102 44 2
-0.197062 1.33157 6.64291 138 90 10
1.35745 1.3252 6.57291 145 112 71
-0.145996 1.361 6.66249 117 64 7
-2.55705 1.40203 6.87775 136 98 47
1.36232 1.34118 6.44895 136 102 71
0.683603 1.36042 6.42068 96 54 0
0.968712 1.35784 6.36525 150 112 60
0.871057 1.37333 6.28226 139 98 42
0.155905 1.41145 6.45145 188 141 16
0.142436 1.42091 6.45414 134 86 0
-2.45805 1.56059 6.37101 132 92 48
-1.97957 1.63905 6.54251 134 96 36
-2.13464 1.55016 6.2976 136 96 40
1.43997 1.49804 5.8114 140 108 62
1.99928 1.60714 6.21989 145 114 66
-2.00388 1.57296 6.0002 136 98 46
-1.72346 1.64152 6.37115 142 104 43
-2.61172 1.65214 6.14312 136 96 49
-2.0431 1.63616 6.02685 136 96 38
0.880397 1.55186 5.63923 138 100 48
-2.66407 1.67276 6.09146 132 92 33
1.77128 1.5443 5.43359 145 113 69
0.81408 1.70479 5.97633 139 99 45
-2.89698 1.69212 5.95435 134 98 40
0.704392 1.60093 5.40897 141 98 46
0.759373 1.78559 5.91801 138 100 36
1.85683 1.62967 5.27495 144 112 65
0.573025 1.82327 5.85428 140 96 21
0.349804 -1.99783 7.41837 181 192 202
0.0799706 -1.55954 6.27793 163 74 76
0.226639 -1.43179 6.3406 180 143 154
0.23306 -1.38813 6.26678 216 192 202
0.00668488 -1.31554 6.05253 170 106 112
0.128834 -1.16934 6.44099 170 43 24
-0.244032 -1.28114 7.69713 189 197 208
0.150422 -0.910384 6.37431 181 75 29
0.375162 -0.438974 6.15738 178 138 146
-0.0304137 -0.394023 6.40356 140 70 70
0.386979 -0.00135076 6.13294 217 242 249
0.552321 0.082838 6.15997 196 210 219
-0.177172 0.103329 7.46417 198 157 162
-0.245332 0.117186 5.97268 179 162 152
-0.258028 0.121435 5.97996 188 180 172
-0.273983 0.143452 6.21386 188 184 176
-0.285895 0.157229 6.15517 188 178 172
-0.33958 0.251582 5.9664 194 152 150
-0.35412 0.346693 5.91396 190 167 168
0.429976 0.590072 6.19282 234 197 0
1.66448 0.773108 8.05772 168 155 146
1.68095 0.772927 8.05389 164 147 136
1.62233 0.741467 7.73115 169 156 147
1.7869 0.852496 8.84621 155 138 125
1.48779 0.75476 7.73951 154 138 133
0.181495 0.58977 6.06509 173 152 38
0.423085 0.60051 6.03898 220 180 31
0.36391 0.700855 6.01518 64 38 48
0.951839 0.872046 6.79181 158 124 54
-1.59272 0.9455 7.05192 161 134 88
-1.57785 0.945594 7.05138 154 124 79
0.922764 0.886776 6.6194 152 116 54
0.428681 0.859025 6.13682 94 51 4
0.416552 0.86071 6.05096 208 172 16
1.40532 1.1096 7.24584 146 111 73
-4.24326 1.29859 8.22473 166 164 169
0.0964625 1.03965 6.34878 178 135 11
0.0802847 1.04029 6.26508 158 113 2
1.08546 1.14337 6.80869 146 109 73
-0.0307879 1.04797 6.26915 152 122 20
0.970601 1.20714 6.81316 151 114 60
0.914303 1.23032 6.59425 129 89 18
0.929439 1.26687 6.7058 132 92 15
0.735269 1.20713 6.35943 216 184 0
-2.33525 1.35749 7.04995 142 104 49
-2.28609 1.34525 6.87548 138 99 47
0.526867 1.39058 6.38009 120 94 50
1.52374 1.46136 6.43186 142 108 67
-2.78156 1.32006 5.68175 140 105 60
-3.11121 1.81787 7.51957 139 101 54
-2.8273 1.7275 6.90243 132 98 48
1.01169 1.48394 5.91581 140 102 59
-2.17801 1.61235 6.37139 138 98 48
-2.01719 1.63683 6.39684 140 100 50
-2.18824 1.66498 6.30431 134 98 41
1.53301 1.42212 5.39928 144 109 66
-1.91517 1.55731 5.89822 138 100 46
0.804267 1.54802 5.75491 141 104 42
0.952059 1.51362 5.59513 136 97 52
-2.06032 1.74767 6.33435 140 102 46
-1.76187 1.5891 5.80814 143 104 44
-1.87782 1.66013 6.07956 136 98 44
1.85793 1.71665 6.12936 142 106 64
0.785757 1.52951 5.41627 136 96 45
-2.45671 1.59027 5.65331 132 94 54
-1.9157 1.6744 5.91069 136 94 36
2.07165 1.83387 6.4511 146 112 70
-2.71768 1.80183 6.29934 134 96 50
1.68773 1.5697 5.43923 148 112 70
1.82608 1.59745 5.51156 142 108 66
0.763613 1.59572 5.5093 138 96 42
0.829722 1.59189 5.44156 135 96 46
-2.37356 1.70125 5.84204 133 94 46
-2.03601 1.9008 6.47237 138 98 36
-1.97038 1.77261 5.99397 134 94 49
0.184617 1.67295 5.61372 139 92 11
1.15755 1.56109 5.25703 142 110 62
-1.58768 1.57246 5.31889 142 102 42
1.1548 1.65778 5.55195 140 103 58
1.07619 1.5787 5.19455 140 104 58
-3.04207 2.10817 6.98801 137 98 50
2.24279 1.97163 6.52393 140 106 64
-1.841 1.83156 6.04987 141 102 46
1.15196 1.57317 5.16098 146 112 66
0.578668 1.7527 5.69511 146 104 20
-2.29776 1.97682 6.45208 134 92 41
-2.19935 1.77407 5.79181 138 94 46
1.21231 1.64411 5.37155 152 120 72
0.722506 1.63493 5.28216 138 96 42
1.69959 1.59857 5.10819 146 113 59
0.606031 0.711259 6.51257 244 130 5
1.13058 1.33854 6.33444 151 114 65
-5.34257 2.28147 10.7903 138 104 60
-0.814777 0.465445 7.49803 181 164 150
-0.987428 1.5721 6.99801 140 104 38
-1.39845 1.88555 6.15787 146 108 44
-0.758417 1.7424 5.97571 146 109 48
-1.56436 1.46898 7.38134 142 102 38
-1.43968 1.51295 7.47951 136 96 27
-2.96442 0.939313 7.83766 184 179 178
-3.88419 1.47228 7.31086 144 106 60
-0.0171185 1.85986 5.8948 136 93 25
0.336577 -1.87372 7.21954 188 198 208
0.0861532 -1.56881 6.24041 202 204 215
0.250432 -1.40143 6.38188 176 140 148
0.119049 -1.07773 6.15047 174 50 32
0.15307 -0.505667 6.0941 184 38 16
-2.90935 -0.848756 9.72094 186 187 189
0.348808 -0.441199 6.15351 184 124 126
0.275198 -0.145468 6.05862 210 219 203
0.0404701 0.123594 5.89419 183 93 88
-0.258463 0.137891 6.22702 189 182 167
-0.30635 0.186411 6.06794 192 166 164
-0.319011 0.19989 6.13131 195 182 187
-0.305788 0.200166 6.13449 168 123 120
0.158974 0.225626 6.10444 178 124 124
-0.340046 0.362264 6.16894 199 170 176
-0.322772 0.382521 6.11903 178 140 144
-0.0718834 0.458361 6.05756 127 148 142
0.176281 0.606387 6.17505 170 148 14
1.0433 0.696314 6.77166 146 130 125
0.0343842 0.641864 6.13404 122 71 17
0.89094 0.818633 6.47647 151 120 61
-1.35351 1.03377 8.08785 146 116 58
-2.52884 0.907715 5.94652 160 138 120
-2.68299 1.28216 7.75465 134 98 48
1.30738 1.21704 6.44275 142 108 70
-2.53723 1.32248 7.34605 138 99 44
-2.38505 1.17731 6.26726 139 100 52
0.788381 1.32358 6.45416 127 86 8
-2.87725 1.39101 7.29127 136 100 51
-0.126428 1.37799 6.747 106 54 0
-0.111912 1.38869 6.7508 96 46 0
-2.67458 1.41628 7.34326 131 96 48
0.638052 1.33858 6.2829 114 73 3
0.615078 1.34458 6.28201 117 76 8
-2.14807 1.49784 7.52481 138 100 44
-3.85634 1.37573 6.89003 146 122 86
0.553906 1.37566 6.33552 120 76 2
0.550649 1.39186 6.40868 124 84 12
-2.64361 1.43488 6.89963 138 98 56
-4.07297 1.51491 7.1775 146 124 86
-1.99455 1.50148 6.14801 137 96 44
-2.4804 1.56029 6.44699 132 94 52
-2.01197 1.5457 6.12733 134 96 40
0.806722 1.54711 5.78039 140 102 48
-2.41625 1.57438 6.17089 138 99 51
-2.8142 1.68021 6.70477 134 92 50
0.820619 1.57423 5.66906 142 104 48
1.56116 1.60815 5.7084 142 108 65
1.47737 1.62351 5.73915 142 108 62
1.60013 1.58987 5.61282 140 103 62
0.964008 1.63566 5.80796 137 97 52
-2.19191 1.6626 6.34134 136 96 44
1.36519 1.63658 5.66498 142 108 64
1.50908 1.66387 5.74695 142 109 65
1.33855 1.62612 5.56319 144 108 66
-2.30605 1.68595 6.07191 145 108 54
1.95361 1.80408 6.02837 142 110 66
1.91186 1.69693 5.52023 144 110 66
1.45933 1.76244 5.83495 143 108 66
1.39731 1.62299 5.30337 145 110 66
-2.20031 1.73802 6.03991 134 93 40
0.743958 1.66342 5.4064 138 99 46
-2.03066 1.69137 5.71732 137 95 44
-2.0395 1.69552 5.70475 138 97 40
0.867465 1.93567 6.15241 142 103 42
1.84292 1.65543 5.08815 143 112 67
1.4702 1.72843 5.31433 145 110 64
2.05219 1.895 5.86813 144 111 66
-2.64107 1.74239 5.8307 136 98 46
0.784962 1.80793 5.59914 143 105 53
0.884397 1.69086 5.24827 142 103 55
0.802454 2.0169 6.31854 144 104 34
0.699615 1.84621 5.62912 140 100 34
1.51198 1.70197 5.11275 138 104 63
1.68468 1.56744 4.62087 142 111 68
0.641737 1.83848 5.58629 143 102 38
0.770104 1.87917 5.60231 142 102 47
1.15831 1.79687 5.3452 139 102 57
1.48451 1.76838 5.23291 144 110 64
0.298295 1.97785 5.93823 140 96 12
0.675031 1.83102 5.37656 144 102 43
0.848966 1.82871 5.37515 142 102 53
0.347647 1.99072 5.95402 141 96 22
0.598398 1.89497 5.58125 142 101 30
-2.36958 1.73399 5.32824 135 94 53
1.06516 1.92581 5.55934 139 103 51
1.93112 -0.188477 7.43196 194 206 222
1.24321 -0.916112 7.60189 198 210 224
-2.82718 -0.0833953 7.98363 184 184 188
-4.4152 1.62952 9.44999 141 108 63
0.311185 1.716 6.30993 140 92 2
0.776925 -1.67733 7.84649 174 156 172
0.0499042 -0.396858 6.28632 118 83 40
-1.47544 1.73477 6.64621 136 97 39
-0.735189 -0.877187 7.42869 189 193 200
-3.00379 -0.527126 9.27566 186 185 186
-0.160246 1.41544 6.38193 136 90 13
1.82774 1.52001 5.56143 147 115 66
1.97299 1.73175 4.9123 144 108 62
0.506237 1.80085 5.16954 141 98 24
1.24129 1.70582 4.7727 147 111 61
-1.24291 1.83532 5.29424 142 102 34
-0.251811 -1.90635 6.88103 193 203 214
-0.0903204 1.67508 5.89914 142 101 34
-1.20832 1.68878 6.16331 138 100 43
-0.159422 0.320166 5.68144 184 14 14
-1.64553 1.12357 8.53095 151 122 76
-1.4059 2.00354 5.86634 142 102 43
0.349555 -1.74156 7.23029 181 192 199
0.375824 0.475363 6.1964 226 192 0
0.603499 0.597657 6.37798 243 216 74
0.547144 0.623472 6.46318 238 185 68
1.99031 0.807107 8.02329 150 118 82
4.57606 0.783196 7.95611 138 127 114
1.14471 0.955428 7.54578 140 110 74
4.44046 0.872461 7.15011 138 126 108
-4.3149 1.34607 8.4637 169 166 172
0.0835901 1.04241 6.26111 159 116 1
1.61005 1.24695 6.65945 145 111 67
1.12182 1.27367 6.41421 157 123 71
1.70031 1.43284 5.71371 145 110 66
-3.29204 2.01276 6.76303 138 102 57
2.21033 1.61792 5.59443 146 111 61
1.17421 1.59563 5.19939 155 124 70
-2.31793 1.85077 5.47894 143 107 46
-1.79526 1.92273 5.48734 138 100 37
1.14246 1.66117 4.7814 144 102 52
-2.25695 1.93764 5.20383 138 100 45
1.01773 1.91709 5.54151 138 96 40
-1.75004 1.97244 5.21153 140 102 45
-1.70607 2.05367 5.53045 140 99 41
0.416121 2.05506 5.85407 138 94 20
0.115009 -1.14735 6.19932 170 33 18
0.121988 -0.997414 6.20665 186 74 46
0.40543 1.94057 5.82872 136 88 14
-1.57053 -1.49889 7.7816 188 190 198
2.1216 0.785624 8.23857 152 118 77
4.44107 0.762278 7.64793 144 132 118
0.10421 0.900858 6.25449 187 164 0
-3.05778 1.99353 6.43501 134 95 40
0.105232 -1.58799 6.33732 203 170 176
0.0316843 -1.50077 6.28767 181 116 117
0.385484 -1.07311 7.57041 177 186 194
0.409885 -0.979879 7.45639 180 188 195
0.423985 -0.747788 7.55057 180 188 198
0.430903 -0.63121 7.58563 178 186 194
0.362836 -0.45082 6.16851 182 136 142
0.444764 -0.491501 7.59846 186 192 200
-0.0753981 -0.144494 6.0908 182 184 186
0.113263 -0.160622 6.3005 213 216 192
0.610511 0.0628862 6.55795 186 179 143
-0.0100594 0.127135 5.90164 140 52 62
0.569504 0.107063 6.28025 200 210 178
-0.0475268 0.294725 5.74031 213 65 77
0.502925 0.295025 6.19172 202 212 206
0.0173846 0.325165 5.79567 180 112 139
0.165219 0.321007 5.82346 147 114 93
0.287865 0.440697 6.14422 208 170 3
-0.135468 0.531219 6.05921 130 128 81
4.29983 0.491176 8.19759 159 164 167
4.36519 0.518968 8.35323 160 156 155
2.55123 0.669227 7.99001 169 158 140
2.16422 0.724348 8.23432 160 141 120
1.1502 0.814373 8.02708 142 126 120
0.673737 0.75178 6.28615 249 138 58
-0.181973 0.863287 6.30101 137 99 20
0.175618 0.857721 6.19555 168 141 43
0.436707 0.866132 6.12396 200 166 4
0.0618465 1.00925 6.28678 174 152 70
-0.0390576 1.02043 6.1875 142 142 92
0.0497816 1.11953 6.43291 178 132 4
1.11688 1.1527 6.84758 146 106 66
0.781686 1.12305 6.40021 156 120 4
1.24567 1.18812 6.95596 140 103 64
0.953539 1.21008 6.71902 146 102 31
1.50628 1.18852 6.70592 146 112 68
-0.180095 1.31395 6.66688 132 86 14
0.900698 1.25984 6.5704 116 69 4
1.27211 1.24292 6.62015 142 102 58
1.41603 1.35145 6.11592 138 104 63
1.32955 1.35926 6.05676 140 100 64
0.895474 1.41715 5.97927 138 92 21
0.954759 1.51848 5.62874 136 90 28
2.1434 1.43403 5.51728 143 106 59
1.15167 1.52621 5.51202 142 102 39
1.83913 1.63689 6.03142 142 107 60
-2.58979 1.94231 6.0003 136 98 51
1.00039 1.56386 5.34647 138 94 31
2.14518 1.48137 5.3857 142 106 59
-1.93455 1.91694 5.66697 144 105 58
-2.02772 1.89272 5.02379 138 99 52
0.512802 2.03946 6.11865 137 92 19
0.368148 -1.51309 7.29688 184 192 196
-0.137652 -0.681001 5.99478 186 187 194
0.154196 -0.570561 6.16962 200 80 38
0.233452 -0.359543 6.13145 231 232 217
0.0727726 -0.119561 5.92452 208 211 187
0.602498 0.137631 6.33639 224 204 0
0.560772 0.225456 6.27209 223 208 75
0.0744781 0.346966 5.9773 158 30 38
-0.106155 0.408101 5.83151 146 96 84
-0.0160003 0.603781 6.01552 170 209 200
1.97087 0.742695 8.18244 159 142 130
1.34519 0.898385 7.93139 139 105 79
1.3892 1.05969 6.9942 145 110 73
-0.00302145 1.05357 6.30687 142 104 6
0.000353216 1.11597 6.3792 176 127 3
0.925091 1.35696 6.2643 149 103 26
0.302471 -2.60349 6.92401 180 188 188
3.49707 -2.5328 7.08634 175 202 240
0.334663 -2.03359 7.13432 181 190 194
0.35196 -1.94201 7.11779 181 190 194
0.350165 -1.87681 7.16112 182 190 194
0.0403165 -1.50995 6.2741 205 149 148
0.179299 -1.4919 6.25666 200 171 183
0.344799 -0.999033 6.30942 140 74 93
0.414225 -1.06672 7.39846 176 184 190
0.167762 -0.54549 6.12719 187 52 20
0.28224 -0.426074 6.13735 220 214 196
0.176105 -0.222808 6.14446 123 116 104
0.124325 -0.166104 6.36197 206 212 197
-0.0602742 -0.13159 6.06975 167 166 154
0.0492692 -0.147965 6.31899 229 232 202
-0.00202554 -0.0615953 6.17704 158 150 130
0.385785 -0.0682554 6.12307 174 194 214
-0.0120623 0.0937672 6.03362 168 90 99
-0.315157 0.281797 5.86302 150 78 72
0.136177 0.256021 5.87311 164 100 127
0.136473 0.27027 5.87749 177 121 144
0.133968 0.330571 5.92933 124 78 59
0.698688 0.334592 6.37202 240 213 115
-0.0278855 0.480202 6.14265 175 171 116
0.36535 0.590635 6.2227 156 122 37
0.726474 0.577637 6.70018 234 196 7
0.806023 0.698106 6.42985 230 196 31
0.8541 0.748639 6.76659 208 172 46
1.01291 0.819184 7.87439 147 134 134
1.64146 0.770435 8.05898 153 136 128
1.8562 0.75456 8.14754 166 150 142
2.12123 0.732535 8.20444 166 149 135
2.14707 0.722875 8.0849 160 139 121
2.80545 0.657611 8.11597 162 146 130
3.07122 0.657833 8.45245 163 146 128
0.627696 0.787045 6.39492 197 118 9
0.826733 0.784619 6.38254 241 218 66
0.407938 0.847426 6.19201 60 11 1
0.425423 0.857302 6.16223 144 104 17
1.07108 0.95655 7.44697 135 100 75
1.07317 0.991535 7.45881 143 112 78
-0.0436329 1.03876 6.20512 146 124 56
-0.0313819 1.04064 6.21599 154 134 68
1.02706 1.09076 7.05389 140 104 77
0.779618 1.1079 6.34076 172 137 10
1.11925 1.15143 6.91106 144 104 68
1.37082 1.1255 6.92951 138 100 64
0.94748 1.20021 6.83131 136 93 21
1.49955 1.19532 6.99663 142 105 67
1.41445 1.23192 7.29242 138 102 67
0.912964 1.23482 6.91467 120 74 4
1.40443 1.29877 7.21134 143 108 63
0.855431 1.2824 6.57814 97 52 8
1.33227 1.24566 6.70353 138 101 62
1.4214 1.24083 6.67385 142 108 66
-2.23448 1.68575 6.41363 138 102 66
1.42063 1.27528 6.31795 141 105 65
1.33745 1.29425 6.34282 137 100 62
3.65409 1.07199 6.65939 136 104 64
1.33531 1.29884 6.2063 139 104 64
1.12474 1.36421 6.20525 150 114 58
1.45103 1.45615 6.4725 140 104 60
4.47873 1.11422 6.24625 126 107 84
0.499471 1.59666 5.83966 141 96 6
1.38703 1.47799 5.72629 140 104 52
1.73706 1.52803 5.97617 144 112 62
1.37489 1.50758 5.55655 138 100 54
1.24449 1.56832 5.7606 140 101 54
1.16184 1.55707 5.48654 144 101 45
2.08901 1.62625 5.90111 144 107 58
1.35396 1.64086 5.14833 146 106 55
1.45015 1.61889 5.09441 136 97 51
2.44746 0.77908 7.07124 154 120 76
