ply
format ascii 1.0
element vertex 1252
property float x
property float y
property float z
property uchar red
property uchar green
property uchar blue
end_header
-1.39949 -0.168155 5.24257 145 142 112
-1.15557 -0.13096 4.79612 133 131 96
-1.12722 -0.132557 5.00056 63 52 28
-1.36853 -0.156504 5.31421 143 122 86
0.204047 -0.0585911 4.72514 126 82 68
-1.17911 -0.152978 5.35552 126 126 110
-1.12639 -0.142552 5.2181 130 123 85
-1.13851 -0.118469 4.811 109 101 66
0.139597 -0.0626892 4.94328 120 99 64
-1.42873 -0.152762 5.27598 154 142 98
-1.31791 -0.155034 5.27429 81 78 66
-1.13907 -0.124895 5.08701 127 124 102
-0.832477 -0.0897828 4.38967 105 112 98
-0.587788 -0.0697727 4.34315 72 61 40
-0.34588 -0.0635292 4.49364 119 96 38
0.223145 -0.0572264 4.72782 115 70 56
0.235105 -0.0468194 4.71277 113 86 76
-1.13897 -0.138795 5.36471 104 98 78
-0.0641535 -0.0610679 4.71307 126 108 74
-1.05737 -0.0916719 4.55373 136 124 86
-0.868409 -0.0758205 4.34099 121 118 86
-0.578318 -0.0612442 4.33635 129 112 70
-1.4498 -0.147244 5.41629 154 144 100
-1.12686 -0.108943 4.75352 93 82 54
0.235913 -0.0355735 4.72174 132 116 100
-1.35748 -0.117742 4.97141 106 96 76
-0.970483 -0.0771176 4.45033 124 125 95
-1.05361 -0.085047 4.57466 70 54 26
0.109961 -0.0500887 4.96803 126 110 74
-1.10326 -0.106966 5.12078 116 112 82
-1.48514 -0.116458 5.16069 149 140 102
-1.33414 -0.118512 5.11746 83 80 67
-1.29367 -0.11863 5.21037 76 76 64
-1.09937 -0.0951115 5.01171 82 82 60
-1.05926 -0.0739432 4.55632 83 66 29
-0.720395 -0.0584845 4.45125 20 14 0
-1.38777 -0.117053 5.1865 91 86 74
-1.09268 -0.0769292 4.65937 118 112 76
0.182714 -0.020322 4.5837 77 68 62
-1.07192 -0.0707947 4.5973 94 94 68
-0.986207 -0.0750401 4.67052 104 115 100
0.146294 -0.0280214 4.75294 124 110 76
0.153119 -0.0133672 4.62263 132 123 104
-1.44314 -0.106549 5.22993 151 141 100
-1.35287 -0.106142 5.20285 70 68 58
-1.33544 -0.109171 5.1925 97 93 80
-1.32442 -0.109452 5.24554 150 146 118
-0.486002 -0.0327634 4.39749 94 88 50
-1.52399 -0.111618 5.03854 169 135 108
-0.69935 -0.0399329 4.3797 122 112 66
0.165311 -0.00517445 4.54727 109 94 87
-1.07604 -0.0677321 4.60924 75 68 48
-0.49085 -0.0243292 4.29914 76 58 27
0.0994913 -0.0144474 4.82853 122 104 64
-1.28826 -0.0860607 4.99361 56 56 53
-1.17783 -0.0874552 5.21487 130 131 116
-1.03978 -0.0584423 4.56835 102 94 64
-1.05155 -0.0568425 4.62191 89 90 72
0.0812424 -0.0113115 4.83202 124 102 67
-1.36042 -0.0891628 5.14357 136 135 112
-1.32741 -0.0824122 5.12188 84 85 65
-1.08193 -0.0768974 5.00997 120 117 85
-1.07145 -0.0714785 4.91388 107 98 62
-0.504957 -0.0287419 4.49495 110 100 53
-1.54328 -0.0857406 4.99475 144 143 144
-1.37711 -0.0917453 5.16168 68 68 56
-1.30857 -0.0893111 5.25153 88 87 71
-0.732172 -0.0290181 4.36488 96 98 74
-0.547492 -0.0187257 4.39873 98 93 52
-1.4715 -0.0843974 5.08489 142 136 106
-1.29026 -0.0812865 5.2164 97 95 84
-0.438355 -0.0087874 4.46076 72 58 21
-0.414241 -0.00983859 4.50578 82 68 24
-1.54109 -0.0721059 4.9754 172 171 156
-1.23788 -0.0756001 5.22819 122 118 104
-1.08148 -0.0527552 4.93929 155 150 117
-1.04754 -0.0435408 4.61554 50 48 34
-1.30254 -0.0704165 5.13345 108 100 94
-1.09761 -0.0526318 4.95232 124 116 92
-0.962076 -0.0503219 5.056 116 98 54
-0.449836 -0.00592435 4.54254 64 44 16
-1.1449 -0.0644817 5.19527 95 94 85
-1.06398 -0.0386247 4.81423 120 114 75
-0.358545 0.00357833 4.65578 93 68 22
-0.0125182 0.0112566 4.86616 112 98 72
0.0931627 0.0177911 4.72528 130 111 83
-0.381773 0.00373299 4.60849 96 74 26
0.108439 0.0273446 4.56184 146 130 104
-1.47724 -0.0630859 5.04319 150 140 108
-1.46496 -0.060073 4.85289 149 140 107
-0.965997 -0.0344632 5.0523 112 100 60
-0.467707 -0.00213343 4.55554 116 92 40
-1.11883 -0.0383117 5.00314 130 127 106
-0.526846 0.00624046 4.52042 129 112 50
-0.518512 0.0131495 4.24035 98 83 36
0.0521897 0.0402027 4.71579 107 90 72
-1.42239 -0.0547952 5.12158 141 139 112
-1.30074 -0.049718 5.17043 118 112 94
-1.04111 -0.0280157 4.96563 138 134 108
-1.01341 -0.0176129 4.70283 47 42 23
-0.969125 -0.0165281 4.56506 112 92 50
-0.964863 -0.0122664 4.52351 120 106 62
-0.723991 -0.00422791 4.61081 118 102 58
-0.725118 0.00150391 4.40129 50 34 17
-0.555778 0.00906035 4.43586 66 47 14
-0.0667762 0.0213153 4.81841 112 86 54
-1.38194 -0.051368 5.11741 107 100 82
-1.10981 -0.0357954 5.12483 150 150 132
-0.984868 -0.0146138 4.76565 101 94 58
-0.788309 -0.00115415 4.45335 114 102 68
-0.739728 -0.0047142 4.65334 52 40 18
-0.764345 0.00181306 4.42982 82 68 46
-0.703907 0.00418979 4.44529 99 84 62
0.00696807 0.0371676 4.8163 125 106 76
0.0597526 0.0319732 4.78837 125 108 82
-1.53878 -0.0429341 4.91331 218 184 176
-1.46827 -0.0497249 5.07924 136 125 109
-1.44864 -0.0487852 5.07921 140 134 110
-1.04101 -0.0188036 4.90178 98 96 78
-0.885252 -0.00480309 4.50793 118 108 64
-0.57626 0.020608 4.33333 130 113 44
-0.368868 0.0184537 4.70513 84 66 42
-1.48626 -0.0431125 5.00913 140 137 113
-1.3168 -0.0337232 5.15866 96 92 80
-1.26157 -0.0274402 5.05854 143 140 106
-1.19353 -0.0183033 5.09777 127 120 106
-1.07834 -0.0251214 4.95097 130 121 103
-0.795938 0.00188076 4.50796 50 43 26
-0.61383 0.0165799 4.4698 125 110 56
-0.389502 0.0223871 4.68874 72 56 26
-1.3632 -0.0346248 5.07426 102 94 75
-1.22292 -0.030562 5.15113 134 130 110
-1.22331 -0.0205039 4.82645 77 74 62
-0.809417 0.00817456 4.50642 20 16 1
-0.421827 0.0267825 4.63321 66 46 10
0.0575473 0.0489602 4.68856 118 102 78
0.0698688 0.0458862 4.698 139 124 92
0.0876401 0.0538 4.62334 124 106 80
-1.23506 -0.0284186 5.15743 110 106 79
-0.887025 0.00555838 4.51611 120 106 60
0.145664 0.0514059 4.68814 130 116 91
-1.27325 -0.0273901 5.11821 129 124 91
-1.12945 -0.0142762 5.01595 105 104 77
-1.12844 -0.00123318 4.42317 98 98 84
-1.08251 -0.00851727 4.87461 140 141 123
-1.0786 -0.00620951 4.77119 134 134 114
-0.448011 0.0252703 5.00965 128 102 32
-0.312136 0.0354933 4.86462 80 62 31
0.045389 0.0554883 4.72919 100 86 72
-1.53676 -0.0237451 4.91972 208 204 192
-1.48346 -0.0285143 4.9216 110 108 89
-1.34317 -0.0220537 5.05362 87 82 70
-1.29356 -0.021951 5.02942 150 147 124
-1.17297 -0.0155695 5.10272 96 94 78
-0.893965 0.0141092 4.56336 120 108 63
-0.824243 0.0127521 4.70036 121 108 56
-0.391789 0.035278 4.76988 70 50 24
-1.20067 -0.0120769 5.06556 144 146 124
-0.520625 0.0400985 4.53071 92 72 28
-0.504101 0.0346996 4.56249 72 47 8
-0.437358 0.0312226 4.67494 62 40 10
-0.00238337 0.0677325 4.46004 133 118 94
-1.25861 -0.0138871 5.11396 154 150 116
-0.997212 -0.0037136 4.88684 104 104 78
-0.5044 0.0407792 4.49337 69 46 2
-1.4853 -0.016397 4.89122 150 142 120
-1.39103 -0.0143395 5.02245 107 100 80
-1.31275 -0.0172111 5.36078 120 118 101
-0.265383 0.0538442 4.72604 88 74 56
-1.46144 -0.0147573 4.94021 108 106 92
-0.939543 0.0172474 4.78205 91 82 40
-0.912813 0.018035 4.58852 120 108 58
-0.108789 0.0609603 4.83694 78 62 56
-1.42573 -0.00922973 5.01561 111 108 92
-1.22423 0.00416074 5.11474 118 122 116
-0.997602 0.015073 4.87835 161 162 129
-0.717822 0.0394933 4.46405 127 111 52
-0.546269 0.0462268 4.54286 76 54 8
-0.201984 0.0541018 5.12638 83 58 27
-0.080792 0.066777 4.72676 104 92 66
-1.52127 -0.00907191 4.86008 152 152 144
-1.04746 0.0215913 4.46243 138 136 110
-0.405072 0.0564177 4.73033 54 39 16
0.0157539 0.0778736 4.55198 95 80 56
-1.20075 0.00799387 5.01683 105 106 101
-1.0584 0.0151015 5.0448 100 96 90
-1.04728 0.00739605 4.97232 86 84 75
0.139533 0.0862485 4.61617 126 110 90
-1.29138 0.00226523 5.09457 121 122 106
-1.12717 0.0113786 5.02068 131 127 100
-0.0376974 0.0729429 4.62354 105 94 83
0.0655194 0.0899838 4.60877 144 130 92
-1.28389 -0.00656879 5.08688 134 134 117
-1.30739 0.0227782 4.07439 149 146 122
-1.2597 0.0158086 5.08225 100 98 75
-0.169762 0.0796922 4.61584 115 98 75
-1.36491 0.0101116 4.97203 108 106 92
-1.05568 0.0271449 5.20696 72 71 66
-0.688066 0.057685 4.52684 100 76 37
-0.0321237 0.0937421 4.49315 87 75 42
-0.188253 0.0876207 4.64421 82 66 50
-1.25041 0.0280861 5.00736 146 144 124
-0.641835 0.061073 4.55105 108 93 46
-1.05692 0.0391218 4.92161 84 76 60
-0.870239 0.0589209 4.56411 112 98 60
-0.535826 0.0681594 4.67273 100 84 38
-0.0219165 0.0973593 4.55916 126 112 78
-0.0547414 0.102252 4.34968 142 128 91
0.017996 0.106652 4.4361 134 119 92
-1.11674 0.0458352 5.01227 108 106 90
-1.07055 0.0415395 5.13455 117 114 99
-1.0751 0.0441788 4.95641 101 100 80
-1.01904 0.0447774 4.94907 82 76 58
-1.31038 0.0332749 4.97305 142 144 128
-0.431137 0.0917453 4.69697 75 52 17
-0.631168 0.0760974 4.62658 110 94 46
-1.32517 0.0408884 4.95234 118 117 101
-0.306778 0.0982905 4.76059 50 28 14
-1.40935 0.0412005 4.83018 122 117 102
-1.27729 0.0447926 4.90408 138 132 116
-0.985416 0.0642211 4.73896 136 130 90
-0.412056 0.0910612 4.74831 70 42 8
-0.150152 0.110569 4.66067 124 110 90
-0.0313313 0.117257 4.4397 138 124 88
-0.0287148 0.119523 4.40423 95 85 74
-1.49147 0.0374685 4.71717 211 198 190
-1.06463 0.0585567 4.89234 124 118 88
-0.277004 0.104147 4.63749 90 74 52
-0.040054 0.121125 4.29033 110 98 90
-1.22614 0.0545362 4.90156 154 152 127
-1.05439 0.0638898 4.78694 100 90 66
-1.01981 0.0649397 4.9864 148 146 122
-0.50831 0.0977411 4.66701 62 46 12
-1.47837 0.0442634 4.6503 181 157 148
-0.118747 0.120914 4.60138 100 84 58
-0.0387829 0.129465 4.35458 64 55 46
-1.46864 0.0479584 4.62629 178 160 146
-1.25709 0.0604081 4.86543 100 96 90
-1.22728 0.0643828 4.89225 89 86 68
-0.417749 0.110827 4.67438 68 48 14
0.00892959 0.140062 4.46259 110 98 88
-1.00313 0.0788221 4.85472 89 88 61
-1.11114 0.0756761 4.81541 104 103 90
-0.896389 0.0919911 4.79335 85 86 60
-0.368932 0.11942 4.65794 60 41 12
-0.0662006 0.138348 4.51839 136 122 89
-1.45622 0.0610338 4.716 198 200 180
-0.950033 0.0966473 4.794 62 58 34
-0.448258 0.126193 4.65587 99 80 33
-0.337551 0.129215 4.6396 114 93 34
-0.0663786 0.140215 4.56887 134 120 86
-0.0250112 0.145429 4.55905 124 42 33
-1.44812 0.065775 4.6865 121 119 108
-1.22951 0.0848003 4.91064 132 127 114
-0.0993047 0.14908 4.37123 130 60 48
-1.43947 0.071486 4.61352 85 80 80
-1.07503 0.0940075 4.80044 48 47 37
-0.139751 0.145114 4.51927 102 90 60
-1.20341 0.0839709 4.82052 150 140 122
-0.95872 0.0996926 4.78124 108 108 87
-1.28689 0.0884437 4.79262 96 94 86
-0.949314 0.107096 4.79514 140 135 108
-1.24853 0.0890507 4.81146 120 115 100
-0.919178 0.110689 4.91864 144 140 100
-1.20881 0.0983339 4.804 96 88 72
-1.03724 0.0979848 4.76385 42 42 28
-0.874035 0.116517 4.69055 147 144 119
-0.402161 0.143944 4.69859 112 90 37
-0.196132 0.156151 4.43966 99 82 58
-1.25154 0.0994766 4.82092 124 119 102
-1.03865 0.114762 4.76866 98 96 78
-0.802385 0.137738 4.6378 70 64 42
-0.728481 0.134814 4.54098 44 38 13
-1.29703 0.101638 4.73212 102 98 82
-1.21396 0.108724 4.797 126 122 100
-0.965514 0.123321 4.7498 82 80 55
-0.926811 0.125166 4.7922 95 88 53
-0.132944 0.171303 4.83896 104 87 62
-0.147758 0.160475 4.69013 109 96 60
-0.115846 0.17092 4.50751 104 94 80
-0.749948 0.141647 4.64866 114 114 90
-0.665882 0.142698 4.62484 104 87 48
-0.394194 0.157324 4.6042 92 69 24
-0.944643 0.138549 4.68574 154 148 114
-0.360512 0.166887 4.45216 96 78 32
-0.195647 0.167845 4.62607 97 80 52
-0.752383 0.145667 4.4669 62 58 38
-0.665118 0.15229 4.62913 102 88 45
-0.333758 0.172517 4.21052 88 74 46
-0.0831207 0.184819 4.53322 112 106 96
-0.708276 0.156321 4.58851 94 88 54
-0.660153 0.152596 4.56925 120 112 72
-0.331891 0.173092 4.62077 130 113 58
-0.29603 0.179451 4.40716 126 107 72
-1.36093 0.123674 4.67135 162 161 148
-1.35446 0.125722 4.5172 138 137 128
-0.724992 0.16655 4.57432 118 112 78
-0.307947 0.19005 4.51779 110 97 70
-0.150092 0.20839 4.41945 116 106 102
-1.30708 0.129253 4.80827 104 102 98
-0.374478 0.19393 4.35433 92 80 49
-1.34692 0.137297 4.52317 193 196 187
-0.327159 0.200005 4.60787 145 130 92
-0.444543 0.198501 4.56995 106 103 69
-1.19738 0.154783 4.76116 141 134 106
-0.348441 0.195685 4.63519 92 82 50
-0.578435 0.200553 4.33305 138 127 81
-1.14889 0.161419 4.07691 107 103 81
-0.752035 0.195408 4.60332 100 94 80
-1.18155 0.153676 3.53617 100 94 74
-0.565663 0.209776 4.51641 150 137 85
-0.216535 0.240231 4.49857 71 58 52
-1.07511 0.183727 4.40066 118 110 89
-0.634052 0.214145 4.60584 148 132 86
-0.617353 0.207366 4.57546 143 129 80
-1.21963 0.177854 4.46065 183 182 174
-1.19858 0.180299 4.44617 97 95 86
-1.01655 0.198286 4.74264 148 140 114
-1.00685 0.198874 4.74481 96 93 64
-1.00676 0.197156 4.65065 128 124 92
-0.61256 0.206872 4.54105 154 142 94
-0.587052 0.213741 4.50799 145 124 72
-0.580935 0.210139 4.46532 146 131 80
-0.983812 0.200614 4.67855 99 96 66
-0.976556 0.197228 4.6619 92 86 62
-0.954858 0.205734 4.66006 83 80 54
-0.723457 0.21785 4.39268 148 133 98
-0.712165 0.211694 4.39385 90 78 42
-1.20078 0.181387 4.247 152 152 146
-1.1915 0.183911 4.19868 172 172 166
-1.16818 0.192762 4.42446 209 211 204
-1.17462 0.187791 4.20648 191 192 180
-0.822956 0.219705 4.53886 108 100 70
-0.705964 0.218768 4.35135 150 134 90
-0.709785 0.221425 4.23889 156 140 94
-0.716635 0.216872 4.51629 100 90 61
-1.13282 0.196907 4.26879 186 181 156
-1.12503 0.197291 4.25939 158 139 120
-1.10213 0.203377 4.43839 150 118 106
-1.0875 0.206007 4.3072 152 116 102
-1.07458 0.202476 4.63368 156 126 110
-0.901714 0.219724 4.59592 104 98 74
-0.909251 0.217988 4.64488 99 95 62
-0.959349 0.219217 4.33362 110 106 77
-0.944913 0.22306 4.53804 105 101 82
-0.762058 0.231019 4.20523 106 94 66
-0.724276 0.240618 4.56616 28 24 36
-0.854494 0.229357 4.43945 128 92 73
-0.773084 0.237114 4.24839 34 30 34
-0.740973 0.239125 4.41493 104 100 88
-0.892513 0.227279 4.52918 146 98 86
0.557288 0.561257 3.72383 96 92 93
-0.0692707 0.63714 3.57438 160 156 157
-1.44097 0.688558 3.7884 182 178 178
-1.43946 0.673311 3.63726 168 164 163
-0.409154 0.7357 3.39509 162 156 158
-0.690016 0.824333 4.05131 171 164 166
-1.29378 0.753426 3.43327 170 166 166
0.0369153 0.859769 3.15406 158 154 154
-0.627992 0.845281 3.23955 166 160 162
-1.11377 0.815786 3.24382 172 163 166
-0.757106 -1.7294 6.19681 154 150 148
-0.431504 -0.719754 4.94452 214 214 198
0.0598175 -0.458347 4.45225 150 147 136
-0.0485086 -0.450949 4.52879 102 86 54
-3.04921 -0.895216 7.56401 166 166 164
-3.07612 -0.877125 7.59687 176 178 178
-2.91728 -0.861669 7.57489 172 174 178
-2.48284 -0.81885 7.37699 170 170 173
-0.578817 -0.359221 4.18643 127 108 70
-0.314413 -0.356335 4.28476 42 50 50
-1.17069 -0.392274 4.40121 176 154 84
-0.829348 -0.347455 4.16757 151 136 89
-1.27715 -0.406652 4.63862 181 162 126
-1.24014 -0.366218 4.6278 170 174 148
-1.10481 -0.334363 4.38071 173 141 92
-0.775171 -0.291452 4.22085 136 114 77
-0.853178 -0.272052 4.22596 139 112 81
-1.0624 -0.291402 4.35666 149 156 141
-1.06307 -0.283129 4.37971 155 162 142
-0.905148 -0.224738 4.29112 124 92 55
-1.10419 -0.212143 4.46936 176 166 129
-0.967737 -0.176554 4.36616 164 141 101
-1.1802 -0.199136 4.62856 102 101 82
-1.17623 -0.186882 4.62565 130 128 102
-2.55515 -0.34487 6.28835 189 190 194
-0.883293 -0.150267 4.33356 147 116 91
-1.07941 -0.164004 4.47802 154 149 120
-0.892182 -0.12416 4.38803 154 122 71
-0.877237 -0.119824 4.36707 118 78 44
-1.23042 -0.186236 5.42396 62 53 33
-0.852822 -0.110856 4.38225 118 96 66
-1.09048 -0.118093 4.54309 144 132 88
-0.916386 -0.102116 4.3856 140 118 74
-1.36261 -0.153306 5.31116 133 114 84
-1.09261 -0.0893189 4.65925 109 102 76
-0.895516 -0.0449123 4.4538 129 104 58
-1.00465 -0.0310088 4.5873 112 95 56
-1.37545 -0.0716224 5.16179 120 116 101
-1.09848 -0.0702807 5.14827 79 74 59
0.0133305 0.0041007 4.86847 98 84 62
-0.921054 -0.0225829 4.5145 120 113 73
-1.04318 0.038694 4.98781 84 78 64
-1.38433 0.0211777 4.93007 116 111 98
-0.789554 0.115143 4.68845 95 89 60
-1.0708 0.114908 4.80814 34 33 20
-0.329631 0.20229 4.58393 101 92 67
-2.82737 -1.65936 7.12403 170 170 170
-3.47449 -1.87092 8.24747 163 164 169
-3.2646 -1.19036 7.52784 166 166 170
-3.23091 -1.16551 7.55125 168 168 172
-1.16149 -0.650627 4.94873 134 126 100
-0.303183 -0.500253 4.6593 134 125 96
-0.826297 -0.335382 4.19711 140 107 68
-1.10475 -0.190682 4.47537 168 152 109
-1.10039 -0.150433 4.50837 146 138 106
-0.843912 -0.103663 4.36117 119 104 73
-0.83691 -0.102153 4.35551 124 102 72
-1.06985 -0.0621493 4.59197 40 36 24
-0.851439 0.0986454 4.71647 129 125 97
-0.314964 0.201274 4.54656 124 112 83
0.303775 0.459779 3.99501 156 150 152
1.04995 -1.05538 4.56679 136 132 134
-1.17024 -0.460146 4.39936 26 36 72
-0.971936 -0.401044 4.19877 20 24 54
-0.843445 -0.348588 4.21824 154 138 102
-0.770495 -0.319544 4.18899 144 129 90
-0.709216 -0.150665 4.27482 115 76 42
-1.13498 -0.162228 4.58324 44 46 37
-0.588076 0.199396 4.52064 138 124 74
-3.04704 -0.920694 7.57307 167 166 166
-3.09414 -1.82151 6.80398 167 168 172
-0.284696 -0.746365 4.80378 204 204 194
-0.379364 -0.758986 4.88011 195 194 181
-0.265021 -0.742481 4.7938 196 194 180
-1.12781 -0.757999 4.92532 161 158 138
-0.432068 -0.737494 4.95219 220 222 208
-1.26565 -0.723416 4.89127 173 172 168
-0.377256 -0.695935 4.95663 192 190 172
-0.328346 -0.698493 4.98868 204 204 185
-1.32155 -0.60805 4.872 175 155 149
0.100212 -0.493399 4.48594 159 154 142
-0.0517623 -0.47117 4.43979 130 122 112
-1.12798 -0.527732 4.7191 162 162 152
-0.0369614 -0.474994 4.56805 102 90 62
-0.128749 -0.436909 4.48618 94 83 52
-2.99048 -0.865863 7.48432 160 160 161
2.48517 -0.437694 5.61946 130 130 134
-1.35695 -0.519451 5.45461 185 186 187
0.2529 -0.41421 5.00884 148 148 152
0.74962 -0.358429 4.70544 144 144 146
-0.583479 -0.336157 4.1669 122 91 42
-0.134592 -0.357796 4.5143 126 114 88
-0.471136 -0.324434 4.19877 97 94 75
-1.10436 -0.356095 4.4235 170 138 98
-0.615883 -0.310591 4.1793 128 108 72
-1.18489 -0.352181 4.44763 193 179 134
-0.898244 -0.309289 4.21286 120 110 95
-1.25999 -0.374284 4.74994 160 152 131
-1.2716 -0.349828 4.71357 101 101 98
-1.19866 -0.321155 4.48011 178 168 134
-0.564908 -0.255312 4.22987 98 98 82
-0.0788708 -0.272077 4.73057 102 89 66
-1.25152 -0.290887 4.99224 119 112 84
-1.28937 -0.286703 4.99472 94 62 44
-1.14877 -0.221606 4.55063 28 22 27
0.149321 -0.171473 4.78518 80 70 62
-0.840368 -0.173441 4.30487 130 83 50
-0.770835 -0.166829 4.28868 104 84 73
0.213492 -0.147619 4.78896 152 142 134
-1.18952 -0.201502 4.68698 47 40 24
-0.893669 -0.127105 4.42799 142 114 71
-0.528988 -0.104312 4.33336 73 58 36
-0.323015 -0.0898406 4.42154 108 85 36
-0.340347 -0.0885768 4.43838 112 90 36
-0.87842 -0.0838804 4.37527 107 106 80
-0.864245 -0.0809841 4.40973 121 117 80
-1.36965 -0.132183 5.18633 74 63 46
0.206355 -0.0261296 4.7638 124 112 90
-0.344221 -0.0400147 4.58212 106 88 38
-1.08461 -0.0786002 4.63453 114 109 86
-1.36069 -0.105989 5.1707 60 58 47
-1.21033 -0.107355 5.30799 101 100 92
-0.996112 -0.0636142 4.50484 98 106 94
-1.0252 -0.0596047 4.57599 133 118 78
-0.0879782 0.00132458 4.79446 108 84 50
-0.987157 -0.0343832 4.60972 110 82 46
-0.727135 -0.0136532 4.44484 116 108 65
0.106211 0.0264672 4.59804 123 104 87
-0.973044 -0.0212901 4.56807 117 100 59
-0.739703 -0.00221332 4.46752 117 100 54
-1.16301 -0.02624 5.06619 98 97 87
-1.12351 -0.0378853 5.09208 123 122 104
-1.50092 -0.0549916 5.11724 148 129 112
-1.28994 -0.0409777 5.09591 92 86 69
-0.736215 0.0110412 4.46156 47 25 7
-0.897655 -0.00209874 4.50703 100 96 63
-0.836253 0.00311719 4.63114 114 100 50
0.0569708 0.0546813 4.51815 88 72 50
-0.931681 0.0409665 4.66521 116 111 70
-0.208655 0.0795905 4.77654 58 45 36
-0.755816 0.0622069 4.5667 16 10 2
-0.709633 0.0729415 4.51687 97 88 56
-1.16055 0.0461656 4.98737 112 111 90
-1.18875 0.0665576 4.89695 132 121 94
-0.64851 0.117403 4.59664 96 84 58
-0.868033 0.108434 4.69815 126 122 91
-0.342829 0.177686 4.29942 104 83 60
-0.388459 -0.818504 5.00068 171 167 158
-0.836581 -0.808698 4.9852 177 170 146
-0.872075 -0.794041 4.93193 180 172 146
-0.283682 -0.763676 4.8229 198 196 181
-0.179483 -0.793845 4.97518 174 171 165
-0.278878 -0.781745 5.03048 218 219 206
-0.432776 -0.745033 4.99314 226 228 215
-0.335386 -0.743473 5.0352 200 202 188
-0.0701683 -0.663139 4.63048 157 154 150
-0.0607989 -0.654999 4.6255 161 158 152
-1.23927 -0.744277 5.01607 170 165 150
-0.272659 -0.688628 4.96754 202 200 182
2.3355 -0.571816 5.06685 132 130 134
-0.117277 -0.530646 4.42001 120 106 94
0.130647 -0.543609 4.65827 152 148 148
-0.129615 -0.501951 4.47062 98 58 42
0.0906079 -0.504509 4.5423 172 169 152
0.0679583 -0.505034 4.55575 176 174 158
0.0962966 -0.474022 4.38054 144 139 134
-1.22181 -0.57124 4.81515 188 146 126
-0.147559 -0.471114 4.38799 113 96 68
-1.25361 -0.521912 4.68128 202 145 120
-0.00610686 -0.457253 4.53373 154 147 133
-0.227879 -0.407027 4.19234 106 92 61
-1.29913 -0.50383 4.80585 195 194 164
-3.00506 -0.870907 7.40783 167 167 164
-3.28427 -0.877327 7.62243 172 174 180
-2.97807 -0.816967 7.22631 174 174 177
-1.28663 -0.446223 4.61186 196 186 147
2.63134 -0.492286 6.07437 142 140 142
-1.82559 -0.696062 6.62133 184 185 188
-1.72727 -0.595194 5.90655 188 190 194
2.60718 -0.444427 5.70651 138 137 141
2.66253 -0.446721 5.71661 136 134 139
2.691 -0.446636 5.73362 134 134 136
1.83927 -0.312232 4.5472 134 134 137
1.54688 -0.518224 6.09368 152 150 154
1.45833 -0.487596 5.81921 146 145 148
0.935223 -0.364431 4.77492 147 147 149
1.51693 -0.486042 5.82183 148 147 150
1.61518 -0.477801 5.78283 148 148 151
0.794393 -0.472946 5.57288 156 154 158
0.605907 -0.455978 5.45746 165 162 162
-0.876109 -0.35862 4.30754 156 146 113
-0.441973 -0.29576 4.18442 77 72 56
-0.394118 -0.305762 4.27081 32 44 44
-1.16046 -0.332281 4.45198 177 158 117
-0.944344 -0.304458 4.32098 156 128 94
-0.353125 -0.274395 4.31269 76 59 37
-1.0591 -0.304473 4.40572 172 170 138
-0.384254 -0.264326 4.27805 40 43 44
-1.23715 -0.325157 4.59888 76 77 72
-0.619945 -0.252625 4.19671 129 115 82
-0.84476 -0.259241 4.25227 136 104 74
-0.238341 -0.246641 4.42822 33 32 26
0.198217 -0.28691 5.2571 99 50 46
0.175959 -0.272321 5.15866 90 44 34
-0.0634483 -0.236366 4.68101 126 102 58
0.0484101 -0.25133 4.87819 120 83 60
-0.918704 -0.234965 4.30234 168 148 110
-0.416829 -0.211942 4.28612 46 53 53
-0.389617 -0.209545 4.38147 38 41 41
-1.04719 -0.229359 4.33187 177 162 122
-1.1419 -0.234179 4.51943 56 54 48
-0.713892 -0.194553 4.22185 136 124 84
-1.19052 -0.255975 4.80543 48 42 28
-1.18812 -0.245954 4.66646 74 74 66
-1.16963 -0.251723 4.69932 92 89 80
-1.14258 -0.217185 4.50406 32 32 32
-0.117942 -0.191932 4.81576 112 92 54
-0.0603482 -0.190797 4.92638 54 52 45
-1.22036 -0.261334 5.3063 158 148 98
0.0392514 -0.17664 4.88781 124 108 80
-1.09583 -0.192489 4.45314 172 158 114
0.0207427 -0.176222 5.03417 116 100 67
-1.09135 -0.18293 4.45236 156 137 95
-0.911625 -0.168334 4.36707 144 113 78
-0.961364 -0.171321 4.41505 144 112 74
-1.2094 -0.185851 4.57943 28 22 9
-0.964224 -0.159239 4.39572 150 112 72
-0.0941098 -0.139127 4.65519 124 106 76
-0.742608 -0.140458 4.34868 131 110 66
-1.19681 -0.182832 4.83251 138 134 106
0.1981 -0.09884 4.87023 124 106 72
0.198839 -0.0706133 4.71384 132 110 82
-0.387179 -0.076816 4.333 115 91 32
-0.591476 -0.0792765 4.27569 92 78 54
-0.930755 -0.0718441 4.4272 140 126 80
-1.5097 -0.0852144 4.96621 140 122 96
-0.722324 -0.0318547 4.45686 92 94 79
-1.22145 -0.080603 5.18261 110 106 84
-1.37306 -0.0816865 5.0965 88 88 72
-0.0714067 0.0141081 4.81515 122 98 62
0.159965 0.0264227 4.64494 134 108 86
-1.01435 -0.0324429 4.82864 69 64 46
-1.25916 -0.0522272 5.10798 108 106 97
-0.709674 -0.00708341 4.4151 101 96 62
-0.353982 0.00585342 4.70065 82 61 24
-1.29417 -0.0492744 5.17559 108 104 90
-1.22769 -0.0465294 5.11587 83 83 70
-1.24112 -0.038634 5.05907 98 96 85
-1.21158 -0.03797 5.15869 81 78 68
-0.847878 -0.00382021 4.52885 123 110 52
-1.11415 -0.0242338 5.07442 121 120 96
-0.761123 0.00144295 4.638 66 58 30
-0.644163 0.0212403 4.36727 107 90 42
-0.747332 0.0218417 4.44362 95 82 42
-0.674502 0.0186724 4.6197 123 107 59
-1.47304 -0.0268444 4.87928 142 136 117
-1.21221 -0.0158248 5.1224 123 120 109
-0.188704 0.0478931 4.94889 74 68 54
-1.33945 -0.010238 5.13443 114 112 92
-0.0872641 0.0617556 4.77255 73 58 42
-1.3241 -0.00209012 5.02648 120 121 100
-0.265018 0.0645218 4.76291 95 80 54
-1.42109 0.00463753 4.93399 124 120 104
-0.787776 0.0518811 4.61049 74 62 36
-0.227926 0.0822399 4.88974 90 76 55
-1.3315 0.0253776 4.92529 106 105 98
-0.721006 0.0629424 4.55656 50 42 18
-1.48479 0.0392149 4.74809 212 188 182
-1.05313 0.0568232 4.89659 130 119 86
-0.0180328 0.138935 4.40745 120 108 96
-0.143677 0.134675 4.23468 142 116 84
-1.07707 0.092067 4.95296 50 48 35
-1.05482 0.0920229 4.73612 48 47 34
-0.395411 0.142851 4.6467 100 72 13
-0.757701 0.130072 4.68733 120 116 92
-0.67872 0.158597 4.65841 126 119 76
-0.739811 0.152133 4.62372 103 99 74
-0.425675 0.185115 4.43067 125 110 60
-0.572126 0.200392 4.33179 136 122 75
-1.11795 0.208567 4.74985 155 154 140
-0.664668 0.223483 4.23522 152 122 80
-0.665125 0.222774 4.16099 141 126 80
-1.28886 0.757721 3.49937 167 162 162
-0.616487 -0.820838 4.94199 176 173 162
-0.897699 -0.791438 4.92381 166 160 136
-0.845824 -0.82484 5.08744 172 164 137
-0.275126 -0.763808 4.87674 218 216 206
-1.18559 -0.69628 4.62215 172 165 149
-0.187681 -0.504993 4.32567 154 117 102
-0.166678 -0.476408 4.41422 100 60 44
-1.1757 -0.473938 4.44939 36 40 71
0.237457 -0.420894 4.58436 122 114 108
-0.107266 -0.392754 4.48535 110 98 80
-1.45622 -0.577219 5.82179 187 188 190
-0.393906 -0.305314 4.27056 32 42 40
-0.819862 -0.30662 4.34719 137 96 61
-1.20243 -0.306463 4.41071 120 104 80
-1.18818 -0.279963 4.45229 79 78 69
0.0697958 -0.24229 4.77763 98 66 58
-1.35413 -0.306018 5.40554 173 172 177
-1.35431 -0.297295 5.43289 63 60 68
-0.23841 -0.174241 4.51467 118 96 52
-1.29704 -0.279412 5.51356 158 142 83
-0.933153 -0.183598 4.36971 148 118 92
0.0301666 -0.193238 5.12254 108 93 58
-0.712419 -0.146086 4.469 146 116 74
-1.14936 -0.174489 5.08573 80 72 50
-1.18586 -0.165768 5.07311 90 86 62
-0.846775 -0.111658 4.35063 113 63 24
0.112581 -0.089697 4.87369 117 90 61
-1.26971 -0.133228 5.21833 120 116 90
-0.339007 -0.0495528 4.55571 108 89 32
-1.4954 -0.128355 5.16195 152 138 102
-0.849126 -0.035559 4.33663 132 112 44
-0.249742 -0.0103714 4.6514 110 90 60
-1.21289 -0.0754718 5.39251 118 116 92
-1.04642 -0.0354611 4.86325 106 101 67
-0.355411 0.00568793 4.86077 96 76 29
0.0561419 0.0455493 4.73224 84 68 58
-1.44932 -0.0390574 5.08396 133 129 110
-0.651954 0.0348164 4.39908 132 118 52
-0.253717 0.0562118 4.91089 85 54 28
-1.41307 0.029422 4.84171 113 112 98
-0.766984 0.0731953 4.59439 106 98 60
-0.0978674 0.140482 4.28708 118 74 52
-0.0544317 0.149271 4.43965 108 52 44
-0.65747 0.1488 4.61321 112 101 60
-0.644922 0.151899 4.59212 87 80 37
-0.372678 -0.362505 4.26265 84 80 66
-1.19431 -0.339059 4.54603 175 176 142
-0.794866 -0.126303 4.36225 126 80 37
0.0223664 -0.00474378 4.87175 124 110 78
-1.06966 0.0955683 4.96908 96 98 80
-0.0635329 -0.678125 4.68098 188 184 176
-0.931183 -0.316784 4.26426 176 147 104
0.756202 -0.365345 4.76017 156 156 158
-1.04201 -1.24697 5.15887 188 186 184
-1.74844 -1.23833 5.72553 196 196 197
-0.553222 -0.79632 4.8199 194 191 179
-0.523481 -0.798948 4.83506 195 190 178
-0.810135 -0.80621 4.95169 194 192 171
-0.286329 -0.799214 4.92466 204 201 188
-0.844624 -0.792742 4.90838 192 188 166
-0.24961 -0.780526 4.8696 214 208 197
-0.229966 -0.781769 4.87336 208 202 192
-2.48555 -1.23216 7.1181 203 203 208
-0.845301 -0.780185 4.88964 210 206 172
-0.404036 -0.787063 4.88729 221 218 198
-0.205829 -0.779778 4.89996 206 203 192
-0.185952 -0.790468 4.95337 196 193 184
-0.861129 -0.780978 4.9068 180 174 140
-0.877237 -0.772047 4.88264 214 207 172
-0.361723 -0.776566 4.92981 220 220 204
-0.258395 -0.778513 4.91858 224 222 210
-0.24502 -0.774632 4.91371 224 222 204
-0.358774 -0.76865 4.92243 232 233 220
-0.468942 -0.764287 4.94091 210 208 188
-0.310112 -0.763658 4.91924 252 252 244
-0.245428 -0.751091 4.89873 251 251 236
-0.238903 -0.74589 4.86891 240 238 220
-0.228874 -0.74397 4.86141 235 234 215
-0.36026 -0.745129 4.94583 231 232 218
-0.438907 -0.752238 4.99403 253 254 240
-0.354523 -0.7227 4.85353 248 250 234
-0.209461 -0.721362 4.88881 230 228 208
-0.497114 -0.73365 4.89924 207 205 182
-0.42762 -0.73327 4.96586 249 252 230
-0.417904 -0.725815 4.94721 223 223 200
-0.369614 -0.714093 4.96344 230 230 208
-0.267247 -0.701772 4.9243 230 228 206
-0.373829 -0.698596 4.91595 218 218 195
-0.408978 -0.704261 4.98707 213 211 188
-0.330208 -0.690859 4.95515 220 218 198
-0.0216361 -0.640376 4.67152 128 124 118
-0.422563 -0.685943 4.99464 214 212 188
-0.406712 -0.693658 5.04699 214 212 188
-0.374659 -0.66526 4.84715 216 215 192
-0.133335 -0.650237 4.80306 237 236 216
-0.727196 -0.699492 5.1777 178 172 146
-0.924787 -0.615039 4.73297 164 158 128
-1.27076 -0.615211 4.82855 160 154 130
-1.10876 -0.640308 4.93808 157 151 120
-1.07289 -0.671744 5.0342 156 150 120
-0.0550464 -0.564282 4.5708 126 104 102
-0.0488011 -0.549274 4.5754 152 141 142
-0.0701786 -0.539496 4.54736 120 106 102
0.0551483 -0.510224 4.5019 181 176 174
0.0626548 -0.507367 4.50528 185 180 173
0.0798468 -0.497394 4.50825 194 189 173
0.0898218 -0.488913 4.46368 180 174 162
0.035767 -0.488031 4.47424 202 196 182
0.0535565 -0.485406 4.45182 198 193 178
0.100342 -0.470702 4.38517 167 159 144
0.0434969 -0.457684 4.44324 195 188 172
-1.17551 -0.535631 4.72573 220 211 170
-0.135982 -0.461462 4.44615 122 108 75
-1.24703 -0.528329 4.82413 89 56 64
0.0430234 -0.465269 4.50948 184 176 162
0.0730228 -0.450348 4.45986 172 168 157
0.0109395 -0.450391 4.50784 164 158 150
-0.184385 -0.433509 4.37519 134 115 79
-0.0134712 -0.455052 4.53659 170 162 146
-3.03859 -0.921795 7.56238 194 197 200
-0.242966 -0.417412 4.2946 120 96 64
-0.116063 -0.435692 4.50335 106 98 73
-0.723983 -0.406616 4.12947 44 50 64
-2.91496 -0.881367 7.47139 199 200 204
-0.246528 -0.406238 4.31475 126 106 66
-0.7411 -0.396434 4.15675 10 25 49
0.152939 -0.395011 4.39635 138 126 114
-0.723639 -0.395631 4.15697 23 25 41
-2.83861 -0.849195 7.36605 204 207 212
-0.752594 -0.395603 4.1769 14 26 54
-3.04173 -0.865285 7.57424 202 203 205
-0.77603 -0.381548 4.11661 32 38 56
-3.06905 -0.868394 7.58286 198 202 205
-2.99093 -0.854795 7.49077 193 194 197
-0.836238 -0.386824 4.18971 180 158 100
-0.157945 -0.395017 4.43111 140 125 90
-2.81086 -0.840085 7.47928 208 214 218
-1.27644 -0.456817 4.71996 224 213 173
-1.4611 -0.517748 5.24822 208 210 214
-0.827252 -0.370875 4.16736 168 142 67
-1.17384 -0.41232 4.41406 218 210 158
-0.360309 -0.361794 4.24757 94 92 68
0.00842511 -0.382087 4.67113 183 180 185
0.141965 -0.37587 4.5598 180 176 180
0.140595 -0.353681 4.45937 180 177 175
0.259321 -0.37414 4.53875 176 174 178
-0.305521 -0.358677 4.27834 55 64 62
0.191167 -0.351222 4.48798 138 128 118
-0.678858 -0.340886 4.16512 155 129 88
-0.666811 -0.346762 4.15185 157 132 88
-0.318272 -0.348185 4.28531 50 58 56
-0.987006 -0.365636 4.26664 168 171 142
-0.863902 -0.35328 4.20667 172 152 109
-0.770065 -0.342595 4.17352 163 144 90
-0.489991 -0.340953 4.19172 121 116 94
-0.21156 -0.352899 4.37714 94 85 56
-0.636305 -0.337617 4.16384 155 141 96
-0.916546 -0.348607 4.2435 189 176 126
-0.397939 -0.341108 4.26112 50 56 48
-0.268202 -0.341048 4.35096 28 27 29
-0.250974 -0.336201 4.3367 58 68 64
-0.462884 -0.329111 4.22385 116 113 92
-0.630678 -0.325879 4.1896 150 126 86
-0.144904 -0.345332 4.54151 139 124 91
-0.837992 -0.331837 4.18997 176 153 109
-0.46785 -0.318002 4.23855 136 128 95
-0.296044 -0.315685 4.29719 68 54 32
-0.656121 -0.317291 4.19033 147 124 84
-0.394368 -0.315701 4.2637 48 54 55
-0.0896035 -0.334623 4.51471 162 156 152
-1.13632 -0.350397 4.39082 214 194 146
-0.613504 -0.313137 4.16604 150 130 90
-0.774059 -0.315998 4.18267 162 142 100
-0.648926 -0.313593 4.18725 156 140 96
-0.10573 -0.33705 4.60212 143 134 120
-0.937297 -0.322106 4.22803 180 154 113
-0.66474 -0.308286 4.17771 150 130 90
-1.24293 -0.366331 4.64316 204 211 180
-0.376555 -0.298882 4.26422 52 64 62
-0.925696 -0.32004 4.28501 181 151 112
-0.388183 -0.295578 4.25973 52 69 68
0.949569 -0.258886 4.30855 188 184 186
-0.851566 -0.308223 4.21738 178 146 108
-1.09014 -0.32592 4.36012 202 183 124
-1.00057 -0.322739 4.304 202 186 128
-0.804637 -0.297408 4.20221 161 132 92
-0.832848 -0.301802 4.22948 162 126 88
-0.949346 -0.307492 4.29376 169 134 94
-1.23674 -0.359176 4.71077 210 210 176
-0.956549 -0.302772 4.27236 176 156 124
-0.80743 -0.291286 4.2043 174 152 113
-0.781326 -0.288685 4.20379 166 146 107
-0.965519 -0.299928 4.26903 186 173 139
-0.910979 -0.304245 4.30281 170 141 104
-0.678187 -0.284845 4.20482 132 131 112
-1.19105 -0.33001 4.55623 212 196 156
-1.06463 -0.303225 4.3504 200 196 154
-0.385429 -0.273183 4.27914 46 56 56
-0.0675892 -0.306544 4.7347 174 164 148
-1.16854 -0.312926 4.48149 202 193 152
-0.974159 -0.285362 4.25093 194 181 134
-0.796126 -0.275177 4.23693 133 97 63
-1.06118 -0.294837 4.35474 172 182 160
-0.862004 -0.277378 4.22772 172 143 106
-0.370443 -0.264253 4.30994 28 28 32
-0.0534525 -0.314916 4.82997 134 111 78
-0.964247 -0.285096 4.30021 174 128 86
-0.234503 -0.260221 4.36284 64 66 53
-1.06266 -0.286413 4.35854 158 174 162
-0.941436 -0.272506 4.26538 168 136 97
-0.394184 -0.258254 4.26984 52 58 58
0.00587036 -0.310983 4.88475 122 104 89
-1.26926 -0.311494 4.81802 189 190 182
-1.08305 -0.277412 4.39755 191 192 161
-0.535966 -0.244905 4.23793 82 78 56
-0.866353 -0.253249 4.24614 137 96 60
-0.49926 -0.22308 4.23107 141 122 83
-0.369214 -0.237044 4.3201 71 69 59
-0.23584 -0.244742 4.43858 52 54 56
-0.431369 -0.24191 4.26486 115 113 82
-0.942716 -0.25185 4.30032 188 171 126
-0.936076 -0.250019 4.31371 182 163 118
-0.984408 -0.246616 4.2972 170 152 128
-0.793997 -0.232343 4.23994 157 120 49
-0.230625 -0.23311 4.44322 53 53 38
-1.08586 -0.254402 4.38584 204 197 154
-0.910525 -0.240346 4.27845 182 157 114
-0.2155 -0.2301 4.5011 118 105 64
0.102044 -0.256744 4.8295 138 122 112
-0.941047 -0.235441 4.29385 167 142 100
-0.882197 -0.235016 4.29083 167 144 102
-0.910452 -0.232307 4.294 159 126 85
-0.899104 -0.231501 4.28265 164 126 84
0.129517 -0.25297 4.83976 152 137 126
-0.487134 -0.215135 4.3064 138 110 57
-0.173605 -0.215494 4.52104 122 101 54
-1.25012 -0.260922 4.81643 135 118 108
-0.380521 -0.213 4.35805 42 46 47
0.073393 -0.237644 4.80069 142 122 85
-0.590437 -0.208715 4.25774 106 93 56
-1.289 -0.276099 4.90711 217 216 202
-0.928904 -0.221767 4.28543 172 155 115
-0.464628 -0.203143 4.27183 138 126 86
-0.418697 -0.205137 4.31559 58 70 66
0.052718 -0.233932 5.08191 110 93 61
-1.25161 -0.2523 4.86287 136 121 101
-1.03055 -0.223037 4.36836 192 186 148
-1.01953 -0.228255 4.36784 178 175 136
-0.899858 -0.217345 4.25954 173 147 108
-0.834727 -0.212091 4.25652 178 156 115
-0.826175 -0.211146 4.26027 176 148 109
0.02033 -0.247961 5.22312 98 91 68
0.0477986 -0.249665 5.25931 57 54 42
0.0977527 -0.22178 4.90972 141 122 90
-0.869186 -0.211381 4.27711 165 136 100
-0.485222 -0.190309 4.29709 140 120 71
0.116993 -0.229163 4.90433 159 148 134
-0.516838 -0.190453 4.2489 140 126 81
-0.907071 -0.209241 4.33726 180 154 118
0.152 -0.221923 4.77424 161 152 138
-0.37521 -0.19099 4.39239 27 34 26
-0.332072 -0.188163 4.38359 78 71 34
-0.303852 -0.184569 4.37172 124 108 52
0.0541105 -0.236935 5.25842 72 70 60
0.169549 -0.215824 4.79891 114 98 94
-0.479304 -0.18399 4.28368 146 129 79
-0.926969 -0.190707 4.25268 145 146 130
-0.863915 -0.199613 4.29414 172 144 104
-0.811599 -0.203658 4.36125 146 115 76
-0.836701 -0.195283 4.26399 166 136 96
-0.344988 -0.179506 4.38845 116 103 48
-0.331906 -0.176146 4.38688 127 109 52
-0.171552 -0.186747 4.59067 108 96 62
0.0874455 -0.239523 5.3524 68 56 38
-0.476897 -0.175201 4.29009 140 116 56
-0.464771 -0.169543 4.24918 142 127 78
-0.384276 -0.175699 4.36223 69 68 40
-0.374781 -0.173832 4.34349 78 74 38
0.0888739 -0.22936 5.30366 134 120 76
-0.786759 -0.182032 4.27557 150 130 100
-0.690678 -0.176892 4.26789 138 128 86
-1.15007 -0.215441 4.54798 76 70 60
-1.12222 -0.214258 4.47756 83 78 66
-1.11082 -0.205463 4.47373 201 194 147
-0.856134 -0.191656 4.30217 156 119 84
-0.830249 -0.182819 4.29131 152 114 76
-0.233734 -0.172494 4.49254 118 96 50
-0.211769 -0.153353 4.54274 120 105 59
0.197886 -0.195534 4.78126 129 120 110
-0.821875 -0.179062 4.28582 165 134 96
-0.331929 -0.165028 4.39166 134 104 56
-0.134891 -0.165318 4.69179 80 74 56
-0.622095 -0.167402 4.2563 149 140 102
-0.298468 -0.160261 4.42309 124 110 70
-1.1086 -0.200989 4.52044 196 180 132
-0.912099 -0.173475 4.30934 176 154 112
-0.81454 -0.173366 4.29013 166 136 98
-0.698717 -0.161971 4.27622 159 146 102
-0.582905 -0.15757 4.29109 116 103 61
-0.438098 -0.154547 4.30571 134 120 58
-0.309928 -0.153966 4.45075 122 83 41
-1.02536 -0.171064 4.39738 189 178 133
-0.97647 -0.167595 4.35994 184 161 116
-0.925222 -0.16842 4.35126 166 134 92
-1.0583 -0.176211 4.46983 176 174 140
-0.913803 -0.166073 4.34874 156 124 82
-0.89893 -0.161194 4.34641 176 146 103
-0.597181 -0.145959 4.29154 146 134 90
-0.941764 -0.156875 4.30952 160 124 87
0.0355745 -0.138365 4.57836 157 144 122
0.26015 -0.143387 4.93164 135 94 81
-0.507209 -0.131787 4.36645 145 131 83
-0.758927 -0.141442 4.2813 153 132 82
-0.774562 -0.133606 4.30369 125 85 40
-0.204714 -0.123396 4.59466 103 82 42
-0.739717 -0.129033 4.30175 161 133 82
-1.38308 -0.207203 5.34074 178 162 115
-0.907374 -0.13012 4.3919 172 146 98
-0.254872 -0.110406 4.54714 118 96 38
-0.394182 -0.106025 4.38099 122 113 70
-0.94742 -0.12609 4.3834 162 156 112
-0.514821 -0.102337 4.34377 127 120 88
-0.863593 -0.117957 4.43196 143 110 74
-1.40807 -0.188462 5.33253 152 152 121
-0.47044 -0.085649 4.39041 31 23 10
0.0843011 -0.0960318 5.01937 124 114 87
-0.598565 -0.0864364 4.32872 144 134 91
-0.577268 -0.0852522 4.33134 84 74 46
0.241805 -0.0784206 4.79063 122 106 93
-0.641121 -0.0837524 4.34892 144 137 98
-0.251061 -0.08273 4.63952 113 94 41
-0.906058 -0.0989434 4.38786 152 127 77
-1.44217 -0.156951 5.23418 162 146 97
-0.362095 -0.0695649 4.4703 132 116 53
-1.43266 -0.156229 5.24448 172 158 114
-0.711209 -0.0797395 4.34696 152 141 99
-0.455664 -0.0710132 4.38628 82 68 28
-0.257935 -0.0713554 4.61671 114 94 40
-0.0646461 -0.0875677 4.84949 132 118 86
-1.58353 -0.144552 5.21982 220 219 220
-0.647406 -0.0735102 4.36309 62 55 29
-0.603436 -0.0741321 4.36343 88 80 42
0.0090054 -0.0796534 5.10641 135 121 84
0.122749 -0.0671621 4.92292 146 128 97
-0.265621 -0.0534436 4.57224 118 96 44
-0.0534078 -0.0797849 4.99391 132 114 80
-1.08499 -0.097196 4.66005 40 34 20
-0.212588 -0.0540684 4.67996 129 116 73
0.00673726 -0.0648994 5.04625 140 124 87
-0.0394905 -0.0605425 5.06518 139 122 90
-0.839771 -0.067677 4.40412 151 144 98
-0.612587 -0.0518282 4.35454 109 106 72
-0.8031 -0.0536313 4.37407 44 38 20
-0.654675 -0.0500159 4.36537 122 120 86
-0.464893 -0.0414387 4.46686 134 122 66
-1.02871 -0.0741403 4.53202 150 134 90
-0.678301 -0.0432039 4.33226 120 124 99
0.00542403 -0.0505131 5.10369 131 110 74
-0.0713021 -0.0414427 5.07758 132 119 86
-0.723305 -0.0434597 4.37837 132 130 89
-0.450608 -0.0309124 4.44887 93 79 32
-0.475294 -0.0324855 4.47135 92 84 42
-0.464503 -0.0293894 4.45899 114 100 61
-0.937707 -0.0444535 4.45884 117 123 96
-0.00731977 -0.0242155 5.00258 132 110 76
0.0798051 -0.0145889 4.8395 140 119 89
0.0834159 -0.00769134 4.77668 143 128 96
-1.40383 -0.0934688 5.13217 117 115 96
-1.31295 -0.0899033 5.20507 112 110 96
-0.700916 -0.0326145 4.39008 142 134 87
-0.539904 -0.0267221 4.44558 130 122 78
-1.32566 -0.0789486 5.05964 140 135 115
-1.31343 -0.0831412 5.11154 92 89 75
-1.30081 -0.0836827 5.2024 112 114 97
-1.28753 -0.0825578 5.18406 80 80 72
-0.738973 -0.0300732 4.37621 112 116 94
-0.7299 -0.0311291 4.40751 110 116 93
-0.423181 -0.0115901 4.52308 68 60 18
-1.32779 -0.0684775 5.16435 140 124 105
-0.461305 -0.00397855 4.50542 79 61 24
-0.236919 -0.0137256 4.89591 117 98 74
-0.424122 -0.00117439 4.51155 124 108 50
-0.0518328 0.00126496 4.92576 128 108 74
-0.00158883 0.0116842 4.85093 126 116 92
0.0148483 0.00800999 4.86421 133 121 90
0.119161 0.0162419 4.63984 157 143 112
-1.34672 -0.0665306 5.13217 147 142 118
0.101395 0.0183899 4.70241 148 135 110
-0.864184 -0.0186477 4.48059 142 124 71
-0.146209 0.00562862 4.95364 133 117 82
-0.0379448 0.0139568 4.92136 142 122 86
-0.0663941 0.013891 4.91763 138 122 85
-1.45835 -0.0552416 5.05707 130 121 93
-1.43652 -0.0612577 5.13963 160 155 126
-1.38996 -0.0527592 5.08278 118 110 94
-1.3218 -0.0522829 5.082 134 121 98
-0.928193 -0.0159057 4.51328 135 132 92
-0.723694 -0.00440247 4.44869 97 88 54
-0.20891 0.00872823 4.92774 116 100 72
0.121835 0.0301665 4.65896 120 102 72
-0.779686 -0.00327181 4.47245 86 81 46
-0.702129 -0.00268039 4.47797 104 96 67
-0.549742 0.00762871 4.45642 82 68 20
0.0462241 0.033325 4.76077 146 130 100
-1.45576 -0.043174 4.96263 156 151 122
-1.22379 -0.0349708 5.08224 126 124 104
-1.43858 -0.0385971 5.00412 130 121 98
-1.36072 -0.036312 5.05341 120 111 91
-1.26596 -0.037135 5.16129 152 150 115
-1.37073 -0.0275041 5.00908 157 148 124
-0.312834 0.0192434 4.94618 104 90 56
-1.43388 -0.0267588 4.97879 158 151 120
-0.881131 0.0198809 4.64826 134 124 70
-0.54878 0.0291297 4.47994 147 129 50
0.0547684 0.048739 4.68715 128 112 88
-1.49738 -0.0274691 4.94248 134 130 106
-1.39613 -0.0193224 5.03479 122 114 92
-0.0617749 0.053157 4.82575 102 88 68
-1.40578 -0.0171431 5.02284 139 132 112
-1.30515 -0.012137 5.00023 98 99 86
-1.27101 0.00157621 5.07755 152 146 120
-0.543774 0.0390888 4.5504 133 114 37
-0.138503 0.0506478 4.77476 126 112 84
-1.27713 0.00172056 5.01338 142 138 113
-0.544916 0.0441211 4.54608 101 82 21
-0.0972016 0.0674368 4.73202 104 90 74
-0.775679 0.0346274 4.5328 123 101 44
-0.684954 0.0432112 4.50593 138 108 46
-0.292075 0.0620754 4.85581 92 65 14
-0.0156447 0.0755991 4.72321 108 98 80
-0.267516 0.0615278 4.97045 90 63 12
-1.06417 0.0280548 4.94148 84 80 75
-1.3696 0.00959449 4.93656 114 113 100
-0.0923494 0.0838577 4.69312 138 129 100
-0.681123 0.0561995 4.55422 100 85 28
-0.624765 0.0600669 4.56925 104 90 37
-0.567268 0.0638224 4.56167 110 98 40
-0.555607 0.0655974 4.57824 108 93 36
-1.41759 0.0197725 4.86667 114 113 101
-1.14891 0.0344038 4.9348 101 100 88
-1.03491 0.0376057 4.93682 122 115 100
-0.882389 0.0516246 4.66531 118 112 76
-0.68963 0.0625414 4.55764 52 41 5
-0.423827 0.0781816 4.71148 73 58 24
-0.923786 0.0531919 4.79492 160 162 134
-0.907629 0.0526974 4.71124 162 160 121
-0.310251 0.0852326 4.79408 95 74 25
-1.32898 0.0313741 4.94184 150 150 132
-1.9285 0.00259951 6.06138 219 218 218
-1.28031 0.0387911 4.9356 177 170 150
-0.688946 0.0725069 4.53209 110 106 60
-0.641047 0.0743518 4.59932 108 96 51
-0.427634 0.0951969 4.67658 88 64 20
-0.402231 0.0972234 4.70985 86 53 14
-1.31009 0.0467673 4.92815 129 130 116
-1.04033 0.0591414 4.86232 106 104 86
-0.726262 0.0789577 4.65667 119 113 73
-0.372045 0.0975282 4.68027 86 64 22
-1.08914 0.0629194 4.88852 114 114 99
-0.99798 0.0709841 4.79665 154 155 120
-0.979059 0.0722433 4.90278 174 172 117
-0.515388 0.101386 4.70182 74 60 16
-0.949305 0.0779116 4.82637 163 160 130
-0.413053 0.111257 4.68355 80 61 22
-0.335892 0.112755 4.67146 55 36 14
-1.15169 0.0763847 4.82917 173 174 144
1.35788 0.209502 4.19126 177 172 174
-1.45947 0.0609731 4.69026 167 172 158
-0.437489 0.12119 4.64687 107 88 40
-1.25182 0.0814223 4.90697 126 123 104
-1.45344 0.0758017 4.68151 216 218 208
-1.33236 0.0736224 4.74621 120 118 111
-0.427923 0.13029 4.64885 106 86 32
-1.38374 0.0829822 4.73495 144 139 122
-1.20426 0.107637 4.80929 164 155 128
-0.66505 0.128072 4.58838 122 112 64
-1.30895 0.0931916 4.76123 116 116 110
-1.07369 0.109135 4.79392 71 72 56
-1.03454 0.118985 4.78089 86 88 69
-0.854938 0.123059 4.65645 112 96 70
-1.11496 0.117058 4.76907 124 122 114
-1.21814 0.110591 4.77252 158 154 132
-0.949514 0.125697 4.64221 136 132 96
-0.878337 0.13137 4.75587 46 48 36
-1.26574 0.115739 4.798 121 117 112
-1.23833 0.107966 4.83601 151 147 131
-0.762744 0.136913 4.62892 94 96 70
-0.511825 0.150273 4.59173 135 118 60
-0.710374 0.142237 4.65127 105 99 60
-0.397826 0.157061 4.58844 104 87 31
-0.678171 0.150687 4.53136 120 111 62
-0.942727 0.139953 4.71721 72 67 36
-0.8599 0.143768 4.67992 108 102 76
-1.12063 0.136552 4.76445 102 104 93
-0.689874 0.156793 4.63138 144 138 96
-0.345156 0.165556 4.58647 96 80 36
0.11374 0.215546 4.73382 111 96 84
-1.08745 0.145625 4.70577 113 116 102
-0.935399 0.155794 4.69281 139 139 105
-0.732383 0.165057 4.58861 47 42 20
-0.447671 0.181043 4.57263 142 136 90
-0.40298 0.181767 4.55528 142 126 72
-1.19816 0.152098 4.6335 140 136 114
-0.598272 0.184383 4.51448 137 131 86
-0.208641 0.210811 4.26461 116 106 96
-0.753512 0.179849 4.57501 112 112 86
-0.415715 0.200563 4.37855 70 60 28
-0.755375 0.192425 4.52996 91 92 62
-1.67472 0.154974 5.2379 220 220 222
-0.854381 0.191407 4.64514 106 104 79
-0.900799 0.193156 4.58417 129 128 101
0.202362 0.264783 4.61321 143 129 116
-0.994268 0.198165 4.5939 135 132 96
-0.302262 0.234532 4.21985 104 94 84
-0.947634 0.207509 4.58878 122 120 90
-1.24433 0.209218 4.7369 198 198 194
-0.945041 0.240599 4.15822 196 189 174
-1.97942 0.223367 5.11907 211 211 211
-1.90178 0.283106 5.27603 211 210 210
-1.55553 0.260515 4.59423 217 215 216
-1.44534 0.287333 3.99958 214 213 214
0.292199 0.462719 4.01388 185 179 181
0.522356 0.619959 4.11468 184 180 181
0.390964 0.665091 4.44897 186 182 183
0.287307 0.607425 3.6906 185 181 182
-0.392243 0.582022 3.80122 186 179 180
-1.01454 0.560967 3.77712 196 191 188
-1.33774 0.621373 3.76033 200 196 196
-1.44306 0.658219 3.6426 190 186 186
-1.29678 0.74177 3.42336 192 188 188
-2.59101 -1.97783 7.06195 194 196 197
-1.71347 -1.67247 6.20833 192 192 190
0.887667 -1.14847 4.8011 162 158 160
0.95227 -1.10251 4.84459 162 158 160
-2.73036 -1.75151 7.2745 196 196 200
-2.82517 -1.59583 7.18511 196 198 202
-0.824746 -0.929344 5.29051 194 192 193
-1.4451 -0.957827 5.84243 204 204 203
-0.349845 -0.771136 4.99492 254 254 246
-0.247056 -0.734268 4.9478 232 230 210
-2.15567 -0.977884 6.14239 204 206 210
-0.253059 -0.706948 4.89949 236 233 212
-0.211592 -0.689204 4.9028 228 226 206
-2.69361 -1.12627 7.39659 202 206 209
-0.163992 -0.633126 4.8637 232 231 210
-1.09411 -0.673145 5.05321 156 151 120
-0.0958246 -0.566448 4.83088 86 57 49
-1.25528 -0.545544 4.7913 216 196 182
-1.22853 -0.528697 4.89562 217 201 149
-0.252111 -0.427317 4.28889 130 112 80
-1.02553 -0.50949 4.78457 165 148 119
-2.98823 -0.925096 7.58618 198 202 205
-0.475249 -0.411383 4.16236 15 15 21
-0.235368 -0.412368 4.28863 132 118 76
-0.736658 -0.39737 4.13719 15 28 49
-0.869925 -0.419803 4.32199 148 31 22
-0.767751 -0.381746 4.15633 29 37 59
-0.301958 -0.364504 4.19141 94 90 68
-0.622797 -0.372308 4.16243 126 73 46
-0.404682 -0.361554 4.26828 58 52 22
-0.289676 -0.359027 4.27436 54 66 62
-0.690825 -0.351076 4.18784 163 147 106
-0.614611 -0.33857 4.16869 146 114 77
-0.819021 -0.344187 4.21136 169 146 102
-1.10766 -0.35212 4.35048 201 175 132
-0.355101 -0.317201 4.2733 46 49 45
-0.429164 -0.308158 4.26868 96 90 70
-0.90477 -0.318533 4.2625 144 134 125
-1.62246 -0.492045 5.86329 225 228 232
-0.919186 -0.291429 4.269 167 136 100
-1.13104 -0.301669 4.39501 215 200 156
-0.457288 -0.261218 4.27614 84 82 68
-0.29074 -0.256569 4.34178 94 81 48
-0.269455 -0.253883 4.37866 26 26 26
-0.326893 -0.206102 4.34634 24 26 19
-0.862335 -0.216541 4.26708 182 154 115
-0.60192 -0.193453 4.2597 152 141 98
-0.779908 -0.199537 4.24622 164 142 102
-1.53911 -0.274196 5.41851 224 224 226
-0.706657 -0.17692 4.26235 140 124 88
-0.72106 -0.168107 4.29999 138 116 78
-0.311498 -0.143096 4.4307 124 96 47
-0.641178 -0.125577 4.30065 143 136 93
0.221671 -0.120319 4.88582 148 126 102
-0.917798 -0.114795 4.38671 169 151 102
-0.859427 -0.110032 4.35508 140 122 88
-0.801685 -0.106624 4.3558 160 142 94
-0.22374 -0.0929267 4.647 116 96 47
-1.42659 -0.14114 5.22048 173 160 114
-0.815223 -0.0731603 4.37276 107 104 88
-0.740947 -0.0543662 4.3517 32 27 8
-0.508083 -0.0520465 4.45554 144 131 73
0.190588 -0.0243062 4.76204 148 136 118
-1.96233 -0.131787 5.8788 218 218 220
-0.0149951 -0.00427395 4.98579 142 124 88
-0.682869 -0.00798058 4.45571 109 98 53
-0.119334 0.0205509 4.86582 136 120 85
-0.593345 0.0163507 4.44708 120 106 44
-0.81492 0.00848724 4.48474 44 41 20
-0.628105 0.0159644 4.48786 98 88 36
-0.572102 0.0240855 4.4671 148 128 54
-0.657939 0.0453313 4.53128 134 112 50
-0.526317 0.0644007 4.56589 112 96 40
-0.682965 0.0676614 4.53777 96 86 44
-1.18281 0.0701629 4.92148 170 166 136
-0.83913 0.0974581 4.70402 134 135 105
-0.898808 0.111062 4.70058 147 150 126
-0.0212954 0.154138 4.61879 142 128 118
