ply
format ascii 1.0
element vertex 1357
property float x
property float y
property float z
property uchar red
property uchar green
property uchar blue
end_header
-10.0695 2.99669 21.5207 101 51 50
-0.127957 3.42365 21.8111 110 16 15
1.74625 3.44078 21.9332 142 90 84
-1.15195 3.51539 22.6019 132 81 70
9.63754 4.05706 24.1113 181 152 140
7.25365 4.23201 25.765 206 185 179
-11.989 2.98563 21.3465 152 86 74
6.94463 4.12546 24.7961 184 160 152
2.51176 3.74614 23.0507 110 92 82
-10.3534 3.09846 21.3151 98 42 47
-9.32818 3.82135 26.1644 118 78 54
-11.3669 2.96817 20.4758 141 26 26
-10.4744 3.09244 21.1429 37 24 36
2.57044 3.80549 22.9831 92 68 56
10.9021 4.54883 25.7014 175 147 134
10.956 4.42908 25.1283 154 130 118
1.58935 3.67104 21.9338 162 30 32
-10.4481 3.1912 21.3009 24 18 32
-9.64881 3.29483 21.9691 142 91 78
-6.47995 3.94692 25.6436 100 56 44
-1.82483 3.80049 23.4108 124 98 90
1.43391 3.69223 21.9917 156 28 30
-5.91113 4.07717 26.2706 128 98 88
1.27654 3.68518 21.9603 159 112 110
-10.497 3.22249 21.2397 24 18 34
-10.4744 3.24548 21.3565 26 14 31
9.59587 4.36125 23.9149 130 97 84
10.4112 4.50186 24.6545 151 124 110
-9.70133 3.4284 22.0519 161 118 106
-11.3202 3.14566 20.4686 140 24 26
-10.0689 3.58222 22.7599 132 53 45
-11.1662 3.23856 20.6976 112 27 27
-12.0202 3.35517 21.5806 156 89 78
-10.9543 3.26706 20.9519 82 47 48
-10.5927 3.31557 21.2345 86 46 54
8.02754 4.56442 24.1803 124 86 69
8.48554 4.47843 23.4422 136 100 88
-12.0422 3.46463 21.5841 163 136 124
-12.0034 3.47484 21.6239 157 96 85
0.228623 3.90667 21.18 158 30 28
1.65915 4.06402 22.078 156 52 47
-11.9649 3.52407 21.5673 164 112 102
-11.0947 3.50818 21.2396 76 46 53
-1.09442 4.14435 22.8795 154 76 62
-10.4703 3.68051 21.8701 126 42 15
0.911493 4.04792 21.53 54 36 27
-1.06436 4.25549 23.0489 148 70 58
-0.708654 4.07169 21.9603 142 44 38
0.859215 4.07947 21.5412 128 113 105
-0.323597 4.023 21.3328 140 112 108
0.520592 4.1574 21.882 141 44 42
-11.68 3.61683 21.1994 144 56 46
-0.201822 4.17318 21.8696 146 60 58
1.09054 4.24526 21.7828 139 66 62
-11.6031 3.65644 21.0604 162 101 88
0.726791 4.23078 21.6247 141 40 38
-11.0022 3.82562 21.3454 144 84 37
-9.92005 4.19974 22.6081 144 106 96
-11.4365 3.90872 21.0226 168 125 110
1.1696 4.64583 22.1837 116 38 31
-11.4019 3.92525 21.0712 160 92 72
-11.3491 3.93946 21.0784 162 86 48
-10.9213 4.16387 22.0789 137 102 76
-11.379 3.98047 21.0181 168 128 96
-10.9526 4.25899 22.202 138 102 74
-10.0522 4.55941 23.2171 157 126 114
-10.9596 4.32155 22.2623 110 52 32
-10.9237 4.38814 22.2349 102 14 8
-10.8573 4.37308 22.2525 160 128 114
-11.0639 4.59384 22.9268 138 88 76
-0.752169 5.11934 23.2428 86 52 44
-10.8515 4.5627 22.2711 126 64 56
0.58903 5.25594 23.3231 109 69 68
-1.01212 5.27046 23.4888 130 95 85
-0.940734 5.22539 23.5277 64 27 18
-11.6198 4.48823 21.8977 148 92 64
-10.6332 4.72299 22.7394 98 17 11
0.290666 5.19826 22.4382 64 29 28
-11.6542 4.64882 21.9763 156 90 72
-10.7445 4.76251 22.529 74 10 10
0.371728 5.41138 23.0501 58 27 24
-0.951991 5.3747 22.9831 146 118 112
0.361424 5.45653 22.9742 138 108 106
-11.0083 4.98592 22.9503 97 36 28
0.213789 5.3832 22.5935 97 74 72
-11.7772 4.78549 22.3307 170 118 94
0.11519 5.54704 22.8936 130 101 101
-10.6061 5.0379 22.6467 89 6 7
-0.55298 5.64207 23.3709 130 101 96
0.037594 5.56873 22.891 132 102 98
-0.524304 5.59643 23.1061 136 107 104
-0.0629858 5.66936 23.1547 119 89 84
0.0949951 5.71876 23.4883 122 94 88
-0.237327 5.69147 23.2538 146 116 113
-10.6047 5.19312 22.8833 102 7 10
-10.9901 5.06407 22.2322 130 46 21
-11.1091 5.15526 22.2876 132 40 15
-9.08363 5.50347 23.4302 156 134 122
-11.9352 5.25402 22.7883 158 79 64
-11.3642 5.09096 21.9356 147 42 16
-9.48158 5.37169 22.908 128 64 56
-11.3445 5.13395 22.0537 145 48 14
-11.887 5.36069 22.7174 162 82 72
-9.37795 5.54566 22.6396 118 46 40
-10.9086 6.11232 21.674 168 113 110
-10.8725 6.12964 21.7355 156 90 90
7.8632 11.8706 26.934 170 152 144
9.6281 13.504 30.4508 179 161 154
7.93784 11.9512 26.916 170 152 144
7.61968 11.8518 26.6818 174 156 149
6.85372 -6.85932 25.2467 142 126 102
6.33798 -6.24467 24.6488 132 114 94
7.4475 -4.20756 20.2114 120 76 58
7.51614 -3.92481 20.126 174 146 137
-4.17028 -3.72284 25.9376 158 131 86
-7.04156 -2.99997 26.2257 148 136 88
10.6192 -2.55562 24.6499 67 36 22
-6.7341 -2.90119 26.6358 147 134 84
10.3966 -2.41571 25.0758 70 16 7
8.01117 -2.30467 23.7608 144 120 106
-9.83698 -2.57304 24.9534 124 116 80
-5.71567 -1.96177 27.2449 98 74 36
-8.57765 -1.70887 25.0431 95 45 28
9.21676 -1.18989 23.2633 94 46 27
-6.05409 -1.55787 26.6341 112 71 40
-4.66698 -1.30364 24.8414 110 70 40
-4.29529 -1.16947 24.6756 92 50 29
-10.5113 -0.669707 19.7301 166 149 128
9.31545 -0.530303 23.0679 163 110 86
9.61854 -0.570304 23.4646 161 118 97
-11.0575 -0.591917 19.9286 24 20 52
7.99954 -0.465195 23.1979 74 60 62
-10.7766 -0.563537 19.9808 50 14 29
-2.37563 -0.784104 26.4119 54 14 8
8.87934 -0.241761 23.1701 73 47 45
7.38482 -0.266632 23.1969 177 116 87
8.15773 -0.223576 23.0497 141 105 94
8.69538 -0.160483 22.9904 99 72 74
8.41303 0.0592167 23.3827 99 62 42
-6.46633 -0.0129926 23.3914 180 118 94
-2.91842 -0.0473681 26.7325 161 116 100
-8.97365 -0.0178905 25.8901 108 78 66
-11.1506 0.125569 19.6607 154 24 26
-10.3132 0.305422 20.4256 142 92 94
9.4634 0.726858 23.8709 116 90 70
9.91256 0.81089 24.2258 131 102 76
-10.4484 0.43798 20.1426 158 140 142
7.28647 0.783489 25.4407 118 94 74
-10.6041 0.562475 19.7136 83 11 22
9.7865 1.04331 23.6639 99 70 54
-10.1646 0.674777 21.0033 137 95 76
-9.49398 0.76484 21.7421 158 142 122
-9.7748 0.790694 21.9293 137 96 36
-3.43662 1.01093 26.3662 186 136 114
-10.0931 0.753141 21.0321 142 106 90
-8.36233 0.893893 22.6643 152 117 96
6.09331 1.24321 26.1183 84 50 25
-10.589 0.93456 19.8475 114 10 14
-11.8215 1.08442 20.6641 161 108 89
-9.17862 1.43499 27.0412 162 116 88
9.82208 1.8463 23.9778 132 107 88
-8.93775 1.39154 22.425 130 16 12
-11.8084 1.23873 20.5234 126 46 33
-7.90843 1.77542 25.8141 168 120 100
-7.96519 1.84379 25.8527 168 120 100
1.71021 1.98832 23.2674 136 65 48
-7.97392 1.90798 25.9725 165 116 98
-9.45946 1.67762 21.6857 137 100 50
5.53582 2.37149 26.0734 97 77 60
-10.3899 1.83704 20.5341 99 34 38
-10.5892 1.8852 20.6678 97 44 44
-10.5651 1.9733 20.8294 112 101 104
-5.33654 2.62548 26.6509 101 53 38
-10.1423 2.1858 21.1448 78 62 64
-9.74646 2.81841 27.2915 142 94 66
-6.24568 2.93857 25.8202 112 61 34
-5.49909 3.05801 26.8892 90 42 28
-4.97239 3.15725 27.1725 81 32 17
-11.2893 2.59101 22.7676 66 59 72
-9.4971 3.69912 26.3828 102 66 34
2.14819 3.70248 22.608 117 103 94
1.39144 3.53447 21.3314 160 28 28
-10.5707 3.20213 21.532 25 16 27
-10.6643 3.29639 21.2471 91 44 50
8.29684 4.62199 24.533 126 84 70
1.70671 4.32277 22.2691 152 86 76
-0.293213 4.13629 21.5905 150 82 78
-10.9241 3.81064 21.3154 131 46 21
-10.9883 3.82639 21.2071 144 85 34
0.567597 5.13115 23.2527 101 46 48
0.608129 5.27139 23.0991 138 97 98
-10.9335 4.81121 22.4188 95 26 17
-8.99586 5.35667 23.4953 151 129 116
-10.8303 5.39322 23.0429 78 10 9
-11.1096 5.20257 22.4842 124 12 10
-11.7496 5.16277 22.4985 146 30 24
-11.517 5.20342 22.1716 145 28 22
8.28323 -6.66736 22.1291 124 74 42
8.42891 -5.83528 21.8358 98 54 26
-3.73876 -5.50995 27.0547 56 36 13
7.66347 -3.58626 20.4038 134 115 106
-1.82837 -4.47281 25.7502 46 26 12
5.78517 -3.67311 23.0496 104 72 38
-4.26079 -4.00633 26.2556 149 134 88
-2.51522 -3.68084 25.6738 42 13 4
-9.40429 -3.35679 24.1997 74 40 22
-6.89752 -2.95899 26.3657 143 132 80
8.281 -2.11526 22.7538 130 56 42
-1.12983 -2.33829 26.1509 137 126 88
-2.09548 -2.27975 25.8229 66 24 14
-2.15849 -2.06316 25.665 74 27 16
7.07319 -1.56717 25.2862 12 6 3
-8.71667 -1.46206 25.4495 91 43 27
-10.714 -0.80418 19.9245 71 64 70
-10.7102 -0.692195 20.0547 160 146 124
9.69709 -0.123825 23.3559 120 80 58
-4.75612 -0.485043 24.6279 95 44 27
-10.1743 -0.365746 20.415 108 38 24
7.72525 0.0255232 23.7107 112 63 46
7.81698 0.383367 23.3266 206 178 162
-10.1821 0.292544 19.7932 158 140 140
8.00919 1.16901 23.6929 92 68 54
9.66539 1.35587 24.24 130 101 78
-1.80961 1.53302 27.0992 132 84 67
-7.71168 1.53068 24.9784 184 136 115
8.6619 2.24002 23.8891 148 113 100
5.48535 2.53764 26.2743 110 91 66
8.54933 3.04904 23.5369 169 138 128
-5.33466 3.26419 26.8662 82 38 24
-10.9024 2.48149 20.6496 87 76 76
7.24684 3.54137 24.4581 158 112 107
10.2117 3.8213 24.61 180 151 127
1.71005 3.35384 21.8913 126 58 53
-0.243901 3.35674 21.6047 130 26 23
-11.0264 3.32136 21.079 84 48 49
1.20278 4.14061 21.6723 141 74 71
-11.0645 3.6221 21.3298 84 9 9
-8.40724 4.61469 24.802 154 132 120
1.19619 4.58977 22.349 86 34 26
-10.9352 4.35628 22.0919 104 24 10
-11.7136 4.95621 22.3039 143 54 46
-11.7589 6.0169 23.0846 156 58 56
-0.612193 7.16905 23.5132 167 144 140
6.4333 -6.30949 24.6437 141 124 106
5.65737 -4.01946 22.6404 88 72 63
6.42633 -6.42281 37.6562 132 130 81
8.30722 -5.076 38.1108 120 118 75
5.716 -5.03892 38.5612 126 124 76
-8.63144 -1.20851 25.1416 108 59 40
7.7762 -0.465812 23.4859 134 99 78
6.20763 -0.446772 25.1351 166 132 109
-10.2095 -0.350071 20.6612 154 122 102
6.22467 0.0241504 25.8792 78 54 22
-8.69452 0.412792 22.5862 160 143 122
-8.31939 0.768868 22.4372 152 120 100
-10.0813 0.85457 21.6775 118 78 38
-8.9403 1.41613 22.6766 132 40 33
-8.70493 1.58537 24.2939 166 124 97
-10.464 2.02328 21.2936 108 98 102
10.1595 3.37949 23.9128 100 62 46
-5.55088 3.17127 26.4133 108 63 40
-8.18759 3.24112 26.2402 125 75 58
9.61484 3.66985 23.9215 180 155 141
10.5039 3.67052 24.0267 169 146 128
-12.2893 2.56546 20.7388 158 118 76
-12.0523 2.54522 20.4208 154 108 54
-9.70751 2.8209 21.913 136 72 64
-11.9816 2.61756 20.1892 164 140 124
0.330714 3.79776 21.6635 158 28 24
-11.0161 3.53275 21.2054 98 22 20
0.472234 4.07856 21.9109 142 42 38
-11.3253 3.82772 20.7404 160 106 92
-11.677 4.61281 22.0468 144 56 39
1.63537 5.7059 23.6416 163 134 130
-11.3756 5.16577 21.996 144 18 16
8.45472 -6.9054 22.5222 112 62 30
9.26285 -6.81095 22.6987 118 101 56
8.62389 -6.82405 23.1168 124 50 26
7.65918 -6.56156 23.885 113 98 60
7.72721 -6.65009 24.2933 126 113 74
8.13137 -6.37545 24.6501 124 84 56
8.1001 -5.02559 20.2672 21 21 13
7.20741 -4.3743 19.3481 48 25 12
5.40715 -5.2128 22.3638 98 62 28
5.63689 -5.25962 23.0016 102 69 38
5.45948 -5.09328 22.3846 110 76 46
5.33241 -4.8427 21.7509 110 72 46
6.69743 -4.51397 20.7338 127 61 38
6.82075 -4.33138 20.1379 118 38 22
6.67963 -4.41208 20.615 160 118 94
6.0543 -4.6855 21.6449 116 32 19
8.26271 -4.10839 19.9916 200 171 158
5.83694 -4.46668 21.5267 116 64 34
6.78548 -4.29472 20.8731 138 96 76
-3.39684 -6.00705 27.8209 148 144 94
-2.6802 -5.75352 26.7204 126 118 74
8.1406 -4.04643 20.048 242 232 229
-3.56826 -5.76033 26.8504 146 144 88
7.1388 -4.10904 20.6128 142 108 92
-3.63287 -5.69873 27.1709 152 144 94
6.15993 -4.24843 22.0548 126 84 60
6.05272 -4.0771 21.3504 146 112 94
6.18687 -4.16872 21.8271 142 111 92
6.12005 -3.87209 20.6641 142 108 93
6.10207 -3.99868 21.263 115 72 54
8.50963 -3.88984 20.8269 172 156 151
6.12704 -3.81706 20.6775 144 112 96
-3.89045 -5.01353 26.0843 57 30 14
-8.7317 -4.45398 24.0222 130 122 76
6.58035 -3.78263 21.5362 166 126 116
7.68812 -3.63892 21.0324 128 100 90
-7.93441 -4.59044 25.9677 92 74 41
7.74794 -3.23009 20.4694 130 112 106
-9.55686 -3.88931 23.7075 146 140 90
5.89389 -3.15879 20.6593 154 123 110
7.32924 -3.00491 19.9885 143 124 114
5.77173 -3.63684 23.1447 96 60 20
7.50997 -3.08404 20.7347 150 126 116
7.58254 -3.08076 20.7182 124 101 90
7.78345 -3.09447 20.8241 145 122 110
-9.2927 -3.74268 24.3373 94 56 32
-8.33351 -3.78162 24.6168 52 21 10
5.98782 -3.31492 22.5923 142 117 78
-3.30375 -3.93953 25.8287 187 114 88
8.38946 -2.84843 20.4631 160 137 126
8.12248 -2.85205 20.6557 148 125 116
8.51592 -2.95186 21.1737 149 126 117
6.6308 -3.0287 21.694 142 109 92
-8.51113 -3.48321 24.3913 54 20 8
6.99778 -2.84761 21.4641 133 90 67
8.75719 -2.71204 20.8618 124 84 54
-8.21807 -4.21985 29.219 160 102 79
-8.56391 -3.31485 24.5051 55 20 12
9.41877 -2.7692 22.3341 134 112 84
9.37394 -2.79642 22.6715 51 33 23
9.20468 -3.15691 24.9383 132 96 80
8.11728 -2.82492 23.2613 138 108 96
6.30243 -2.47639 21.292 145 133 90
9.76144 -2.76677 23.19 42 32 24
-1.3477 -3.4023 26.6613 81 64 27
-7.74141 -2.91549 24.7975 154 96 76
7.83331 -2.97168 25.9857 156 134 87
9.88383 -2.70237 24.2527 70 24 10
9.78863 -2.55843 23.8395 64 20 10
8.6366 -2.44719 23.2095 114 100 86
8.15692 -2.22683 21.9719 130 107 96
10.0004 -2.59447 24.5232 72 20 8
6.88136 -2.08115 22.32 79 82 62
6.20268 -2.27307 24.2017 102 40 18
7.5405 -1.99131 22.247 127 30 18
-6.53432 -2.80619 27.3705 144 135 82
7.85839 -2.01799 22.6343 176 106 80
6.55615 -2.47526 26.0926 153 140 96
8.1477 -2.13334 23.9738 136 114 98
5.87683 -2.16733 24.8198 161 146 99
8.9103 -1.92628 23.2546 112 54 29
8.42742 -2.0395 24.8918 88 80 68
8.09824 -1.98986 24.1404 108 94 82
7.90112 -1.77058 22.6489 172 77 54
8.27206 -1.86759 23.97 145 102 92
-6.00062 -2.06415 24.8022 122 88 56
7.35966 -1.59254 22.1405 148 95 80
9.30625 -1.50693 21.4677 142 123 80
-5.04015 -2.41284 28.2129 104 92 46
-5.09342 -2.33166 27.7441 129 120 76
8.41411 -1.80171 24.5469 148 120 103
10.1591 -1.59636 23.2735 150 116 78
-4.43723 -2.29466 28.0029 156 110 82
9.66387 -1.49213 22.4583 150 112 74
9.6229 -1.5458 23.0951 134 111 70
5.53778 -1.65776 24.4514 150 130 92
6.54346 -1.63956 24.4025 82 44 27
8.00341 -1.86063 26.5965 66 72 35
7.96827 -1.69958 26.4965 72 82 46
-4.64359 -1.54434 24.1339 88 44 18
-3.17573 -1.57217 25.0052 184 140 122
-4.38773 -1.25069 24.4855 111 72 44
7.2538 -1.07486 25.3771 54 58 42
-7.08182 -1.06172 25.1086 88 45 24
-1.85566 -1.17108 27.7157 60 28 16
6.99309 -0.814023 25.172 116 98 72
11.9994 -0.700541 25.7085 80 64 36
-10.5636 -0.611865 20.4264 138 106 82
7.76788 -0.50401 24.2788 150 90 60
7.81431 -0.400309 22.4757 68 54 55
8.1199 -0.418055 22.8741 54 38 42
-11.0603 -0.543784 20.1795 22 18 52
-2.30042 -0.706364 26.7093 68 26 13
-3.30317 -0.536935 25.1406 136 91 72
-3.30489 -0.467032 25.1407 136 92 72
8.03084 0.132938 22.5171 150 117 92
6.66006 -0.0687741 28.2987 142 130 106
5.95244 -0.00088862 26.7438 159 148 122
8.51741 0.272359 27.3723 126 100 78
-4.42836 0.17845 24.2176 130 76 54
-8.97958 0.104936 26.0306 155 138 115
-5.28146 0.231536 24.6748 86 42 23
9.86324 0.563245 24.4287 48 22 7
9.04126 0.62126 23.1718 78 50 36
-11.0311 0.4048 19.9492 129 8 10
-10.8299 0.456153 19.3119 112 12 22
-11.0147 0.443226 21.2162 128 20 24
-9.13634 0.491148 23.3688 155 116 94
-11.3949 0.475935 19.7726 180 136 131
-11.1662 0.483423 19.3581 172 104 98
-8.99933 0.531009 22.183 146 100 74
-6.72832 0.566838 24.4465 104 57 34
-10.3132 0.514076 19.3979 124 18 20
-9.12225 0.561045 22.276 161 140 112
9.45582 1.01609 24.3507 58 40 26
-7.25265 0.681043 25.2542 153 104 84
8.09014 1.15066 26.438 147 120 107
11.403 1.2369 25.1899 72 38 13
-9.50007 0.799461 21.5887 148 120 82
-8.56841 1.20479 23.2093 127 40 29
4.99923 1.69299 25.8817 127 110 88
-8.63778 1.37932 23.171 172 112 90
-7.79554 1.56398 25.7939 177 129 107
9.51742 1.96612 23.6557 142 118 102
-8.78622 1.47137 23.0511 170 116 94
0.308562 1.72087 23.0227 163 149 128
10.017 2.10499 24.2269 106 76 55
-8.88867 1.51409 22.4468 152 130 102
8.69833 2.30495 23.8256 116 76 54
-12.0218 1.55801 20.0384 156 117 68
9.37133 2.46922 23.5131 142 104 82
-8.47075 2.29966 25.3882 190 142 118
10.4958 2.82477 24.5554 172 147 137
-10.5602 1.91032 20.8179 86 56 57
-10.5439 1.94813 21.067 88 74 76
-8.49356 2.3679 25.3766 192 146 122
-1.22826 2.77646 27.7469 129 78 54
-10.7321 1.97574 20.9704 88 69 75
-1.26175 2.80872 27.1044 120 74 45
-10.6405 2.01414 20.544 96 86 90
5.55432 3.11403 27.3587 97 75 52
10.9504 3.07308 24.3121 162 124 99
5.59814 3.17842 27.4437 100 78 56
9.5587 3.28971 24.2879 178 158 152
2.42805 3.09836 24.6776 143 74 58
-10.9091 2.32926 20.7069 93 85 84
-12.0755 2.31391 20.201 138 84 23
-6.40947 3.11438 25.5414 150 97 68
-5.42496 3.21084 26.0132 100 58 40
0.679101 2.91707 21.4054 150 30 24
1.88114 3.07602 22.3135 148 99 86
-12.1873 2.46086 20.4558 148 108 60
5.7704 3.72398 26.0515 91 55 35
6.43916 3.54227 24.2584 161 131 125
-10.0715 2.9105 22.9313 120 27 26
7.29811 3.62495 23.9968 150 82 82
1.10285 3.23181 22.2551 146 18 18
-11.108 2.73707 21.2997 81 68 70
-11.1235 2.79163 21.2863 80 63 68
-10.7649 2.81452 21.0537 89 78 82
-0.720571 3.70526 24.5635 140 41 34
6.69157 4.31862 24.9498 117 80 64
7.18289 4.48596 25.3846 110 73 56
-11.2377 3.07722 20.266 136 22 21
-11.2944 3.20694 20.3905 145 30 28
1.8407 4.14811 22.8138 153 54 48
8.94122 4.64997 24.1209 144 113 104
0.605264 4.27486 22.6988 157 31 30
0.668501 4.29663 21.956 152 28 26
-8.28185 4.51158 24.6825 154 132 120
-11.0593 3.81649 21.2426 125 60 23
0.521706 4.88125 22.7614 152 31 30
0.528884 4.9684 22.8554 148 34 33
0.539608 5.49919 23.4953 117 84 81
0.506944 5.5397 23.3925 150 118 115
-10.5365 4.82341 22.1389 71 8 8
0.0505461 5.46575 22.7423 84 56 52
-10.774 5.06514 23.0056 78 8 6
-0.43531 5.52487 22.6334 140 112 108
-11.8762 5.0006 22.5004 154 92 77
2.52129 6.98535 27.17 165 140 134
-11.8772 5.25609 22.6503 153 80 65
-11.6609 5.31413 22.2347 154 69 58
-11.648 5.39873 22.317 151 40 34
8.3248 12.1991 27.8347 167 148 141
8.35622 -7.26222 21.9544 228 182 156
8.70645 -7.1988 21.9559 202 154 130
8.18663 -7.21506 22.3184 138 126 81
8.33064 -7.1311 22.0121 136 81 49
8.30993 -7.04922 22.0828 116 64 31
8.32906 -7.03432 22.0029 128 71 38
7.99282 -6.7311 22.4504 140 126 84
6.44122 -5.30279 22.7857 144 113 88
-3.11967 -5.42472 25.6212 57 39 14
-3.5442 -5.47081 26.2219 60 46 20
-3.10043 -5.31792 25.6022 58 35 19
-2.38822 -5.32754 26.1752 52 32 13
5.92518 -4.44835 21.5696 116 69 43
-3.37055 -5.18094 25.645 57 30 16
-2.95411 -4.73496 25.4979 50 22 12
5.83672 -4.00154 21.9852 152 124 114
-2.66104 -4.54917 25.4674 110 70 52
6.00768 -3.79164 21.8294 158 122 113
-1.85875 -4.44327 25.7477 38 18 5
-2.56283 -4.18533 25.5227 30 10 6
7.67991 -5.87484 35.6207 142 140 90
6.76638 -3.02032 21.5023 148 117 102
-1.48208 -3.78782 26.7408 85 72 40
6.68091 -2.82064 21.6949 101 74 50
5.84887 -5.14803 38.6064 124 122 79
-9.58484 -3.15182 24.5488 74 36 19
9.08989 -2.86536 23.7976 150 128 119
-2.46636 -3.17444 26.1057 66 22 12
-3.24127 -2.97609 26.046 170 116 87
-1.54193 -2.78068 25.5672 102 61 37
-9.15423 -2.62199 24.5963 75 40 28
-1.80192 -2.54521 25.502 142 93 74
-10.5641 -2.44248 25.4966 126 120 81
-9.78849 -2.3837 25.1313 121 115 77
-1.1423 -2.3574 26.0624 126 110 75
-2.17567 -2.23661 25.7581 85 42 28
-8.43707 -2.22552 25.0846 73 30 16
-1.20558 -2.26103 25.9898 62 34 12
-5.40271 -2.21853 28.8312 134 123 83
5.98868 -1.7024 24.7827 167 136 116
-8.60756 -1.88675 25.3283 104 48 33
8.0241 -1.2313 25.3469 121 99 78
8.30782 -0.969195 22.6501 89 75 76
6.03042 -1.07745 25.4738 102 81 57
7.07501 -0.955396 25.4029 36 26 18
-6.08352 -0.897076 23.5552 154 98 64
-7.6794 -0.798574 24.2993 160 114 92
-7.66021 -0.716462 24.3963 140 95 74
-2.09022 -0.514977 26.7226 134 94 76
-6.15918 -0.304278 23.3528 144 89 67
-6.43521 -0.213032 23.8366 172 110 90
9.19204 0.00601929 23.3276 70 37 28
-1.65624 -0.0156853 27.0953 152 117 90
9.23717 0.22782 23.4181 166 128 107
-4.87793 0.0613119 24.0662 102 53 34
-5.55123 0.17097 23.7523 102 54 44
-6.27302 0.405038 24.48 152 102 84
-2.08249 0.640262 26.6802 158 116 99
9.18514 0.786629 23.8088 28 14 6
6.27539 0.788904 27.0822 68 46 28
9.21515 0.906565 23.7609 27 12 4
-1.95645 1.08334 27.0314 146 102 82
5.89492 1.29935 26.7937 116 88 60
-10.1308 1.03086 20.8191 86 6 4
-0.0710857 1.66691 28.4988 142 125 101
7.14497 1.62933 24.9174 114 93 76
-1.65086 1.67118 27.2384 157 109 91
6.93125 1.74232 24.8346 140 116 104
7.92474 1.84736 23.4094 161 123 100
-2.21974 2.17261 27.4504 166 123 106
0.328418 1.83954 22.0958 84 43 26
7.75461 2.14917 23.616 126 92 76
7.1708 2.26692 24.1633 103 59 36
-7.9625 2.21374 26.0699 153 108 88
1.70001 2.21911 22.5936 144 91 74
8.02555 2.41649 23.2295 124 84 64
-8.66811 2.43637 26.2141 190 144 120
-4.78847 2.63694 27.0886 141 86 66
6.00373 2.69864 25.2734 148 114 107
8.44445 2.61627 23.5012 146 100 80
-1.58184 2.84195 26.6874 99 56 36
8.21173 2.9046 23.7364 151 121 109
-6.24015 2.85564 25.7285 116 68 44
-5.4902 3.02651 26.834 86 40 25
-5.58045 3.05043 26.8166 92 43 25
-3.53707 3.15862 26.7751 133 78 50
8.4335 3.10481 23.7262 158 128 118
-5.11257 3.23572 27.105 56 18 8
5.98301 3.32268 25.8997 58 44 36
-9.36683 3.3231 26.4451 128 83 59
5.86962 3.50779 25.9801 130 110 98
1.68287 2.93782 21.5288 144 93 82
-5.46269 3.46491 26.7182 92 54 43
0.364745 2.95876 21.4444 120 26 26
-5.48237 3.66384 26.3436 92 61 50
-5.86958 3.51978 25.3125 91 48 34
0.5858 3.13083 21.2801 87 80 66
-0.014865 3.15996 21.2233 80 71 56
-7.13669 3.75401 26.0825 100 56 37
0.599724 3.21961 21.2744 58 42 28
0.785255 3.20675 21.2201 114 30 26
-7.38071 3.71087 25.726 102 59 38
-7.96867 4.02781 26.7013 100 54 32
0.612087 3.56055 21.4999 148 128 120
0.892574 3.81945 21.5415 100 86 80
-0.615516 4.50905 22.3705 94 40 34
1.24995 4.53864 22.2148 110 21 17
0.137388 5.02321 23.0233 110 23 18
-0.611416 5.11972 23.0471 94 68 62
-9.6071 5.05676 22.8425 124 46 44
-10.2765 5.41764 22.3392 102 7 10
-10.2883 5.67349 22.3822 103 30 32
-10.0532 5.78674 22.3349 128 17 22
-10.1954 5.88841 22.1034 122 69 66
8.61871 -6.74264 21.9711 124 80 54
6.80766 -4.27827 20.1957 122 72 46
-4.02595 -4.55536 26.0635 58 28 13
-8.88163 -4.05951 24.2387 113 74 50
-3.27101 -3.87208 25.3575 193 120 97
7.33536 -3.32382 25.2799 138 112 72
-8.97227 -3.14471 24.2396 90 56 37
-2.20238 -3.24127 26.499 99 53 38
-2.4274 -2.9461 25.9803 102 51 33
-8.73997 -2.28307 24.5722 60 30 21
-9.76949 -2.31528 25.2522 140 128 100
-7.11375 -2.31568 25.4506 104 67 38
7.88177 -2.01846 24.0887 66 69 52
-6.92818 -2.18786 25.7496 98 58 33
9.62896 -1.26821 22.6777 159 114 91
-7.1772 -0.960617 25.0221 108 66 44
-4.2229 -0.664544 24.3571 122 76 59
7.16526 -0.576407 25.0471 130 116 90
6.28514 -0.484818 25.4342 118 82 57
-5.00269 -0.333894 24.3136 117 68 46
7.68539 -0.00568263 23.5089 88 40 25
8.80388 0.121467 22.9836 108 70 60
8.95909 0.239827 23.2155 166 107 85
5.87474 0.56262 27.6275 156 140 114
9.44294 0.926061 24.6091 106 65 46
5.69085 0.898733 26.9974 116 79 50
9.69587 0.864589 24.0672 124 99 81
5.7279 1.3035 26.8611 129 95 74
6.87944 1.39091 25.2271 126 106 90
-4.59546 1.64934 26.9426 160 109 88
8.15175 1.73123 24.3431 124 90 70
7.98789 1.77473 25.0398 118 92 78
0.369221 2.07612 22.2384 89 42 26
7.16481 2.4937 24.2762 144 96 76
0.0503957 2.24482 22.2456 84 20 12
-5.20526 2.97189 27.5834 75 30 18
9.62995 3.01376 23.6473 184 156 140
-6.43065 3.39739 25.7104 94 46 27
-7.88044 3.54841 26.3184 92 44 24
-9.80071 2.91456 21.6214 103 48 52
0.778464 3.27683 21.2063 120 27 22
-5.89942 3.94372 25.7699 89 50 40
-0.728575 3.56808 21.7424 144 68 60
8.11034 4.36533 24.0131 174 154 149
8.65387 -7.88766 22.8295 152 134 83
8.27033 -6.55977 21.9136 150 98 66
5.94623 -6.80447 24.8885 134 116 69
8.2214 -4.86465 20.9982 18 12 6
5.36267 -5.3319 23.8021 112 85 48
5.52172 -4.45999 23.7256 134 123 96
6.51627 -3.83554 21.5162 163 133 122
-9.63257 -4.10376 24.5749 73 55 24
6.0924 -3.54703 21.6917 157 103 92
8.95591 -3.2827 20.4676 160 104 99
-9.77658 -4.0198 24.6619 137 124 86
9.02128 -3.23201 20.5535 136 28 22
9.44084 -2.98266 20.9468 144 126 115
8.52553 -2.89281 20.8148 152 128 120
-8.94903 -3.31358 24.6923 50 24 16
-2.67403 -3.34498 25.886 40 14 9
8.19789 -2.7791 23.1942 146 116 104
-1.48723 -3.09907 25.8179 54 24 10
-3.73616 -2.98597 26.5658 118 74 38
10.092 -2.66407 24.3979 62 23 12
-3.60865 -2.89844 26.0906 142 90 58
6.64008 -2.72473 25.1716 126 106 65
7.76126 -2.51255 24.5034 158 155 102
10.773 -2.47676 24.891 126 78 56
8.20938 -2.28984 23.3832 147 78 68
-6.53196 -2.77677 27.465 142 130 84
-8.90372 -2.29363 24.6152 68 34 24
7.11863 -2.13624 25.3532 114 36 22
-2.16232 -1.7614 25.6891 60 21 13
6.74666 -1.34042 24.9938 129 84 61
9.17824 -1.09076 23.2899 110 58 36
9.61143 -1.01636 22.5602 184 150 126
8.29758 -1.05863 23.172 16 11 13
9.64084 -0.984011 22.7929 164 120 92
-7.22159 -1.19567 25.1856 109 66 44
9.96974 -0.961961 22.8293 158 134 119
9.98286 -0.881677 22.8594 168 136 116
9.6611 -0.83471 22.8482 168 130 108
9.1096 -0.83311 23.2425 106 52 32
-7.44662 -0.942566 24.4553 119 74 50
-6.79318 -0.853309 24.9711 108 66 42
10.8769 -0.588434 24.5542 147 96 66
-1.41228 -0.545766 27.4513 149 129 104
8.22489 -0.321891 23.0504 96 67 71
-3.34016 -0.506078 25.1136 128 82 66
8.21237 -0.323621 23.459 118 89 82
7.92206 -0.390003 26.6817 64 46 22
-5.97839 -0.399331 24.0549 105 55 38
8.44781 0.0615564 23.2916 94 64 50
-1.09281 -0.0506425 27.9741 146 129 104
8.90698 0.198587 23.2655 176 114 86
-4.79818 0.0960226 24.1363 118 72 54
-5.02138 0.194584 24.425 92 48 30
7.6419 0.557281 26.6597 86 67 40
7.61539 0.604308 24.1071 158 106 74
-7.04621 0.551024 24.7206 96 50 26
-8.3638 0.861054 22.4714 124 42 34
11.5122 1.34697 25.2188 102 59 34
8.14865 1.20813 23.9139 48 26 12
5.62317 1.33478 26.8977 117 80 54
11.8802 1.34895 25.1435 136 102 78
10.985 1.85394 24.8762 82 58 36
10.9167 1.96237 24.6807 66 40 16
-3.05984 1.9143 27.0058 193 147 124
9.73003 2.16674 24.1934 117 83 64
11.5191 2.29734 24.6677 126 100 76
6.92782 2.2437 24.9302 185 144 126
6.91676 2.31056 24.6491 180 130 104
5.71366 2.8067 28.2286 122 106 80
-5.59387 2.65421 27.2388 118 72 57
-9.98814 1.95917 20.9403 122 14 20
-5.47199 2.6875 26.9806 109 62 48
-10.3058 2.91093 27.5144 120 92 68
-6.25372 2.78255 25.7255 148 100 80
5.65871 3.28867 27.8776 116 98 78
-10.1686 3.01891 27.329 138 106 84
-2.97206 3.1604 26.847 148 93 71
-3.35006 3.29454 27.4994 144 91 64
-6.7214 3.08126 25.9502 92 44 20
-3.85981 3.50098 26.3198 166 116 90
5.74968 3.69975 25.9367 91 56 36
11.0843 3.74459 24.7462 148 130 118
-1.86155 3.35503 23.4857 94 69 52
-7.78468 3.69197 25.6253 118 70 47
7.26908 3.9227 24.2605 108 78 76
-0.123367 3.29855 21.4094 120 23 17
2.60112 3.58123 22.7437 169 153 148
-9.28148 3.83991 25.8688 152 118 102
-5.73779 3.98325 26.0657 100 66 56
7.36266 4.4755 26.4859 177 146 137
-10.4122 3.29115 21.3404 90 36 42
-10.0864 3.52871 21.9056 146 84 40
0.94446 3.94556 21.2843 74 55 48
0.485582 4.11258 21.9355 146 33 32
0.807048 4.01956 21.4664 56 39 33
-0.282514 4.02522 21.6129 80 56 50
0.0518098 4.09028 21.8536 145 22 21
0.589692 4.21668 21.9769 146 40 40
-0.0909988 4.94297 22.7517 122 30 30
0.569965 5.12552 23.5094 127 40 38
-10.6188 4.71439 22.8215 114 32 11
-0.382243 5.68192 23.2918 125 94 89
-0.30714 5.67718 23.2514 128 98 94
-10.1481 5.73927 22.2753 114 42 44
-10.4707 6.01322 22.008 134 62 60
-7.07391 -14.4634 36.8256 138 132 82
8.89568 -8.09184 23.0425 156 134 84
8.62093 -7.88312 22.588 152 135 85
8.95745 -8.0574 22.9876 109 72 32
9.05199 -7.74502 22.2013 156 150 97
9.01547 -7.45825 22.0884 110 78 39
9.19945 -7.47124 22.2836 137 126 77
8.24913 -7.45809 22.3906 145 131 80
9.1391 -7.43992 22.3992 130 100 66
9.1718 -7.39978 22.2598 132 122 72
8.27519 -7.44557 22.5177 146 136 86
8.20005 -7.31932 22.3585 141 131 82
9.06123 -7.1993 21.9496 147 140 87
9.10291 -7.18366 22.0852 146 138 86
9.07707 -7.11362 22.079 146 135 85
8.65613 -6.78773 22.2102 160 108 81
8.67071 -6.67572 21.9039 134 92 65
8.93055 -6.7612 22.172 108 81 43
8.17846 -6.77942 22.2451 100 60 24
8.08238 -6.62792 21.8297 104 58 26
8.00283 -6.48889 21.4417 109 58 29
8.44196 -6.75188 22.3109 124 75 47
8.60165 -6.58148 21.811 105 62 35
8.92052 -6.53448 21.9401 116 94 58
8.62928 -6.48393 21.7956 133 88 64
8.79067 -6.55844 22.0415 124 86 61
8.53939 -6.46172 21.9246 107 64 40
8.85364 -6.46762 21.9421 86 65 45
7.9766 -6.4599 22.3215 120 66 42
6.25768 -7.14754 25.1429 148 142 98
6.37062 -7.13549 25.2891 126 114 76
6.22864 -7.16553 25.3723 149 137 91
6.25187 -7.07136 25.1474 118 102 62
8.05861 -6.75023 24.0942 148 130 94
6.64486 -6.99405 25.2154 144 136 96
9.24254 -6.10286 22.0588 134 123 112
8.08777 -6.86586 24.7468 110 95 58
7.32413 -6.37746 23.3602 129 114 78
11.7715 -6.40609 23.3576 136 120 82
11.9268 -6.43354 23.5185 116 96 56
7.43088 -6.72361 24.8469 155 145 102
11.7079 -6.44045 23.729 150 134 100
11.9997 -6.40418 23.5131 108 82 40
11.5888 -6.42623 23.7378 148 130 96
11.9189 -6.35358 23.4974 102 74 42
11.6506 -6.11381 22.6853 113 94 48
7.86926 -6.3326 23.6475 119 65 44
11.3877 -6.64721 24.7109 138 122 86
11.4535 -6.64084 24.6876 129 115 77
11.5777 -6.65807 24.7781 136 120 80
11.5967 -6.58007 24.6266 115 96 58
12.1182 -6.2106 23.2918 156 144 96
8.35383 -5.72435 21.632 92 54 27
11.4453 -6.71008 25.0229 134 118 83
10.531 -6.24857 23.5318 152 140 102
10.5956 -6.24357 23.5135 138 124 86
11.5276 -6.47284 24.2885 115 94 60
11.6981 -6.51521 24.4741 147 124 96
5.7402 -6.49713 24.776 146 126 84
8.35102 -5.65556 21.618 88 50 26
9.62227 -5.75111 21.8309 128 118 85
5.68733 -6.37984 24.5784 104 72 33
5.62626 -6.19578 23.8806 107 76 36
12.1928 -6.10339 23.3399 118 100 54
5.82636 -6.6487 25.5153 148 134 89
7.32617 -6.66198 25.5456 144 124 104
5.5763 -6.20292 24.4681 107 72 34
6.54079 -6.00766 24.1759 124 104 86
12.2116 -5.82148 23.1803 117 98 54
9.97853 -5.43914 21.8607 81 56 40
9.9728 -5.39127 21.7113 124 92 68
11.8275 -5.72393 22.8913 124 96 66
12.2313 -5.83942 23.3617 109 85 50
12.1584 -5.75202 22.9527 138 126 76
7.53625 -6.27043 25.1437 148 117 94
5.43267 -5.89766 23.9658 124 87 54
6.85523 -5.82826 23.6391 160 140 112
9.88897 -5.13652 21.1045 116 86 62
11.9501 -5.4555 22.2437 120 106 62
11.7694 -5.41225 22.3942 141 116 82
10.021 -5.02593 21.0222 148 122 102
11.511 -5.72797 23.5246 134 108 86
10.0466 -4.79682 20.8233 128 102 82
5.25114 -5.41967 23.4933 128 112 70
5.29067 -5.37965 23.3585 96 66 29
11.5951 -5.08336 21.9779 140 108 79
11.635 -4.96226 21.6829 108 80 40
8.37747 -4.65748 20.7745 129 88 62
6.92237 -4.5559 20.7658 118 14 8
6.7994 -4.54107 20.7461 128 56 36
6.99355 -4.54555 20.7754 118 10 6
7.22548 -4.31728 19.7421 124 76 52
6.73691 -4.56385 20.9312 129 50 34
9.00824 -4.39214 20.1848 54 37 25
11.6569 -4.71997 21.5505 128 116 66
11.2227 -4.84369 21.9917 135 103 78
10.4519 -4.45262 20.5088 108 73 44
11.056 -4.56911 20.9608 118 84 56
6.46274 -4.54208 21.2609 120 32 20
11.2929 -4.50508 20.9301 142 134 86
-3.21989 -5.50753 25.7361 128 118 79
5.58792 -4.68894 21.9963 124 89 65
6.25697 -4.49381 21.0684 114 14 7
7.47102 -4.53644 21.3203 121 62 42
-3.80981 -5.99484 28.0508 144 140 89
6.63685 -4.34105 20.5486 132 86 60
11.2062 -4.57796 21.2615 114 82 54
8.63507 -4.03811 19.3479 128 86 66
10.6858 -4.38956 20.7862 114 72 46
11.5021 -4.52433 21.4573 128 115 74
9.35744 -4.18641 19.9641 66 41 22
-2.64611 -5.88922 28.5971 60 42 17
9.104 -4.3622 20.9369 144 98 70
10.5147 -4.50264 21.3867 96 58 34
8.21271 -4.15118 20.0948 158 130 118
10.5959 -4.50009 21.4292 108 66 34
8.15248 -4.07874 19.7807 196 166 152
8.18648 -4.0553 19.7292 114 80 63
11.4927 -4.54884 21.8402 146 128 102
9.76847 -4.13807 20.2103 71 40 22
8.0777 -4.04591 19.8128 138 116 113
8.15575 -3.94248 19.4338 132 96 78
9.11435 -4.29068 20.9056 109 68 35
8.92877 -4.06323 19.9379 139 106 94
8.98679 -4.06136 19.9296 142 106 91
8.246 -4.02084 19.8643 168 142 132
9.03135 -4.32971 21.0748 108 67 38
9.09212 -4.03721 19.9732 129 92 76
11.7837 -4.54736 22.2449 114 98 62
11.6578 -4.4782 21.8561 138 126 86
11.497 -4.50214 22.0123 156 139 117
11.6285 -4.50277 22.1025 140 128 98
10.2169 -4.089 20.4148 127 90 70
10.6691 -4.23156 21.0719 150 126 109
10.6283 -4.1805 20.7824 142 125 106
5.38204 -4.78663 23.8907 137 134 86
8.74716 -4.10281 20.589 156 126 113
10.3985 -4.17687 20.8796 132 92 66
5.67005 -4.9999 24.7061 116 109 80
7.22827 -4.13103 20.7628 148 118 108
10.1601 -4.08886 20.6691 134 88 62
11.3642 -4.32558 21.6254 137 132 92
6.24803 -4.13797 21.154 108 59 32
9.07645 -4.16566 21.033 164 138 128
-1.92609 -5.30045 26.9023 64 52 18
9.22814 -3.91423 20.0228 135 107 96
5.36869 -4.65815 23.6052 127 122 86
8.11404 -3.93295 19.9664 157 136 132
5.44621 -4.63777 23.6367 106 100 76
9.46916 -3.90707 20.2107 142 104 85
11.24 -4.20997 21.4842 112 104 72
5.95173 -4.16996 21.7151 127 87 68
8.12074 -4.00365 20.9996 92 74 72
9.13194 -3.96247 20.6105 178 158 150
10.1739 -3.88576 20.0238 149 135 120
-8.96851 -5.12046 26.8164 150 144 90
-1.68772 -4.95789 25.719 126 120 76
7.49791 -3.94003 20.3482 136 106 94
8.03758 -3.93344 20.6222 101 86 82
9.62259 -3.84746 20.341 131 87 66
9.57394 -3.82496 19.9089 118 76 48
-8.79532 -4.77129 25.0846 148 143 91
9.34743 -4.03484 21.3274 181 160 154
9.78199 -3.8314 20.0784 104 57 30
10.5973 -4.08695 21.1729 136 108 90
10.5669 -3.93814 20.7713 135 121 105
10.6445 -3.94788 20.7977 104 99 79
-8.44877 -4.64639 24.6355 140 130 86
-8.68099 -4.84987 25.7055 144 132 88
-8.51037 -4.7902 25.4397 138 128 85
7.49989 -3.84692 20.3818 140 112 102
8.62224 -4.04221 21.3163 181 165 160
10.785 -4.0372 21.3653 148 128 119
-8.65121 -4.88942 26.1292 103 90 54
9.6925 -3.81951 20.3336 148 104 80
9.82195 -3.84069 20.4528 118 72 46
-8.57443 -4.88735 26.1591 120 106 67
-8.51668 -4.89912 26.2254 160 150 105
5.47423 -4.58214 23.9279 139 132 94
7.85123 -3.81192 20.5119 88 66 60
9.99663 -3.79637 20.3352 115 76 54
10.3949 -3.91797 20.8909 140 107 91
-1.63855 -4.92882 26.2344 102 94 50
10.677 -3.94434 21.2226 148 126 117
-8.38215 -4.82265 26.2776 132 124 79
9.48818 -3.78375 20.392 136 102 88
5.45344 -4.35957 23.6732 146 138 100
11.428 -4.02295 21.7796 116 112 74
-1.70829 -4.95714 26.7952 68 53 20
-1.58935 -4.85924 26.2806 112 104 59
9.66303 -3.68951 20.2774 116 71 47
10.1264 -3.83803 21.0197 134 96 76
9.40546 -3.687 20.2583 137 104 92
-7.87419 -4.55295 25.1 122 114 70
5.54969 -4.35315 24.0845 126 114 74
10.6005 -3.79684 20.971 129 94 82
10.7091 -3.81841 21.0693 106 44 36
-1.55502 -4.86933 27.0299 112 105 60
10.8673 -3.80886 21.2003 94 57 40
11.0172 -3.82779 21.3124 110 84 56
7.7306 -3.77242 21.1943 156 130 122
8.64505 -3.8656 21.5092 158 140 136
9.45839 -3.63745 20.3643 143 116 106
11.4139 -3.92698 21.8715 112 88 56
5.61034 -4.31625 24.3015 111 97 55
7.3568 -3.58041 20.4837 164 138 131
7.67975 -3.70064 20.9048 127 102 90
9.6733 -3.58368 20.3308 124 106 94
8.21097 -3.57381 20.4013 174 156 154
-1.46643 -4.70534 26.7735 136 131 86
5.68103 -4.25945 24.6017 126 116 73
7.85058 -3.52206 20.417 131 114 107
-1.44069 -4.62602 26.7848 131 125 80
6.46142 -3.62057 21.226 144 54 52
8.5706 -3.60193 21.0758 244 230 228
8.51053 -3.53015 20.7164 152 132 127
8.52107 -3.5077 20.6107 159 136 130
9.99789 -3.51815 20.6067 128 110 98
-11.3462 -5.03292 29.1399 150 141 96
-1.47233 -4.7327 27.8494 140 134 88
7.87929 -3.51318 20.5978 144 126 119
10.6902 -3.55465 21.1323 112 24 20
11.0227 -3.65163 21.6146 140 85 61
-7.97256 -4.11202 24.5946 50 26 12
9.99472 -3.55805 21.1872 108 108 92
-7.81692 -4.38505 26.3161 132 118 72
-1.42095 -4.49536 27.0293 113 106 64
8.45798 -3.40715 20.5691 170 148 142
-4.28207 -4.43819 26.5082 146 138 89
9.41163 -3.37219 20.5536 158 140 132
10.7047 -3.50368 21.131 97 30 22
7.44938 -3.18784 19.6723 125 106 100
9.73855 -3.40495 20.7612 102 104 91
-7.71269 -4.24619 26.0446 100 80 43
-1.39888 -4.41987 26.909 140 134 90
5.70174 -3.89563 23.9295 130 110 70
10.1375 -3.45608 21.084 118 115 106
-7.65746 -4.20663 25.5599 54 34 8
8.46296 -3.31912 20.5457 164 144 140
9.47777 -3.338 20.694 140 128 118
5.6468 -3.72966 23.2475 96 68 30
5.74525 -3.78355 23.4327 100 69 28
6.24724 -3.44445 21.3594 78 50 43
10.5778 -3.39037 21.13 130 86 76
-10.5756 -4.33581 26.504 144 140 92
-1.38813 -4.32537 26.8616 132 126 82
7.69783 -3.27577 20.5842 144 121 114
10.9597 -3.36917 21.5588 80 42 31
5.57014 -3.57009 22.3711 102 68 34
7.5785 -3.24195 20.5026 122 100 91
9.04527 -3.22985 20.461 136 76 74
8.59038 -3.2001 20.3557 161 141 135
10.1422 -3.30919 21.0623 115 110 96
7.75023 -3.22875 20.6953 99 77 70
7.97755 -3.24914 21.0145 85 66 58
-8.12352 -3.73154 23.9485 62 32 16
7.70466 -3.23107 20.7459 145 122 114
11.0437 -3.33078 21.8853 136 104 88
11.2715 -3.43572 22.0367 74 50 28
-1.40217 -4.25857 27.1042 128 122 78
5.70208 -3.51818 22.6027 100 64 27
5.88593 -3.54281 23.0434 102 64 28
6.04322 -3.51969 22.5264 105 65 38
8.7416 -3.21646 20.7247 150 129 122
10.1428 -3.245 21.0534 135 120 110
7.73054 -3.15842 20.6634 142 120 112
9.75301 -3.2205 21.056 118 114 102
8.23811 -3.15981 20.8564 136 117 112
-8.48064 -3.37204 22.2234 102 62 36
-8.31908 -3.6554 24.0932 48 18 6
5.69141 -3.43566 22.561 131 104 70
5.9768 -3.46706 23.0277 98 61 28
8.54527 -3.20928 21.241 136 118 112
10.2953 -3.1991 21.1888 148 124 108
9.52494 -3.10413 20.6968 119 110 99
10.3583 -3.18936 21.1985 132 105 84
7.35671 -3.0145 20.2545 143 120 110
7.54497 -3.04283 20.5408 132 110 100
6.49943 -3.57572 24.4546 140 116 78
9.66448 -3.10292 20.8393 128 118 108
10.699 -3.23758 21.8144 123 96 70
6.46981 -3.43992 23.905 146 123 86
6.25765 -3.22191 22.1281 114 68 41
7.91992 -3.09756 21.257 144 120 114
-11.0302 -4.07597 27.4773 136 128 86
6.53589 -3.25769 22.5698 116 70 42
7.67584 -3.03611 21.0267 160 134 129
10.6212 -3.21449 22.0435 158 134 120
10.1395 -2.96112 20.4413 114 91 66
3.32113 -5.39286 36.2041 134 132 84
6.4382 -3.34584 23.4179 128 104 66
6.23109 -3.18505 22.3556 117 84 56
9.79576 -2.97462 20.8474 135 117 100
7.57212 -2.87752 20.5031 142 116 108
10.4535 -3.08633 21.7629 134 105 86
10.4201 -3.06697 21.5903 130 98 75
10.3203 -3.01669 21.2484 120 86 60
10.496 -3.02495 21.3934 108 76 45
6.56388 -3.28132 23.2776 152 138 102
6.59827 -2.9991 22.2431 132 115 77
8.65257 -2.91461 20.8889 163 140 134
6.72424 -3.08637 22.1833 134 91 66
6.59968 -2.98917 21.5906 138 100 80
6.87679 -3.08143 22.1666 131 92 72
7.56059 -2.81488 20.5729 161 134 126
7.76158 -3.23916 23.8508 128 81 55
7.34489 -3.01458 22.2181 118 72 46
7.43628 -2.98937 22.1992 120 74 48
10.7332 -3.06764 22.5669 114 78 55
8.7461 -2.99716 22.2606 160 134 126
-8.73913 -3.28844 24.2767 54 32 25
6.99958 -2.96632 22.2308 138 102 68
6.69284 -2.897 21.7924 94 60 32
6.8621 -3.29651 24.7625 144 116 72
10.542 -3.12682 23.8854 133 92 63
9.42714 -3.06003 23.8676 142 96 76
9.15422 -2.97436 23.0715 144 95 74
8.8622 -2.77118 21.6665 150 104 82
9.35094 -2.85197 21.8897 140 95 68
-1.36957 -3.43243 26.3785 139 130 84
7.93076 -3.11221 24.227 140 115 88
8.42061 -3.16436 25.0986 145 112 96
10.5932 -3.04811 24.0602 139 101 76
10.6687 -3.05912 24.0987 140 104 74
9.07226 -2.88055 22.933 133 86 64
9.72731 -2.92532 23.6249 148 104 87
10.0101 -2.93232 23.7894 86 56 43
9.52901 -2.81799 22.4697 126 92 72
-2.76491 -3.2515 26.0418 86 42 26
7.60305 -2.81768 23.3636 142 121 90
8.60692 -2.9895 24.4288 144 112 101
7.52524 -3.03362 25.2534 119 94 52
10.3857 -2.78367 23.5721 70 59 38
10.0333 -2.86935 25.3055 87 55 38
-7.19084 -3.14716 27.352 146 140 92
-1.11999 -3.02115 27.1425 127 117 69
10.324 -2.68626 24.5764 28 7 2
-7.11082 -2.98755 26.9294 122 100 60
-8.55728 -2.65354 24.2783 27 6 2
8.78347 -2.46226 23.2493 152 135 126
10.3183 -2.61531 24.7746 83 30 18
8.65255 -2.43592 23.2806 136 115 102
8.72155 -2.43482 23.2729 101 90 76
-1.02416 -2.76233 26.5185 107 96 55
8.63522 -2.34588 23.0833 91 81 64
8.70783 -2.32781 23.4515 132 106 94
-10.0699 -2.59928 25.7537 114 96 64
9.95052 -2.30152 23.8143 92 34 23
-1.03001 -2.60694 26.6843 116 103 64
15.8844 -3.16195 33.576 144 142 94
-2.34018 -2.50357 25.9243 110 64 46
-2.29262 -2.53687 26.2027 92 44 28
-1.90687 -2.51498 26.1756 72 33 20
-15.0045 -3.15242 31.4363 117 111 68
6.71778 -2.39513 25.3838 104 68 34
8.07169 -2.18714 23.6846 164 122 110
-1.06572 -2.54466 26.783 110 98 56
8.10786 -2.19588 23.9928 103 82 68
-4.03727 -2.34872 25.3851 140 107 66
6.77131 -2.38675 26.1909 130 96 58
7.93475 -2.03698 23.2805 148 74 64
-9.79138 -2.41482 24.9133 123 113 76
8.56028 -1.98812 22.7001 122 80 60
5.77138 -2.16995 24.5359 112 94 50
6.47587 -2.22961 25.6458 148 118 84
7.8138 -1.95733 22.5641 166 78 62
10.0644 -2.12221 23.7275 110 86 84
7.79248 -2.00975 23.1754 158 127 112
9.05694 -1.93987 22.6455 54 30 16
1.73097 -3.63106 39.3577 112 110 68
8.37841 -1.91876 22.6154 122 54 34
8.55662 -1.92215 22.7198 107 47 22
6.08126 -2.08216 24.4889 142 113 85
7.81653 -2.05045 24.2016 76 78 59
8.2512 -1.86385 22.6903 156 66 48
9.63589 -1.93926 23.9492 46 26 19
-5.0491 -2.51442 29.1369 101 83 44
8.06075 -2.00505 24.3084 84 82 65
8.00395 -1.92813 23.6625 146 110 92
7.82139 -1.85498 22.589 141 32 23
-2.17797 -2.21269 26.3776 80 34 25
19.5556 -3.04711 37.1137 142 140 92
-0.991628 -2.12979 25.8523 111 100 60
7.85501 -1.93262 24.0402 106 100 86
7.76837 -1.82508 23.1037 126 80 66
-2.17828 -2.1336 26.3735 66 20 12
7.64444 -1.72112 22.3227 164 76 53
7.88919 -1.76964 22.7739 184 89 68
7.95818 -1.76903 22.7702 180 82 63
10.3198 -1.87796 24.6059 79 52 52
-2.20477 -2.01354 25.6745 82 38 26
6.28081 -1.83832 24.6043 144 110 92
7.66722 -1.75327 23.193 153 130 117
7.8764 -1.70036 23.4682 148 114 98
-4.77986 -2.29941 29.6432 159 112 82
-0.953417 -1.9759 26.1085 104 97 52
10.1439 -1.75555 23.7194 98 72 64
11.9418 -1.92135 26.0611 118 106 61
7.24411 -1.83865 25.3638 48 38 27
9.61782 -1.78115 24.0329 36 19 8
10.6953 -1.6567 23.6882 117 89 52
9.86406 -1.60629 23.2005 130 90 74
-1.0055 -1.94687 26.3573 93 81 40
9.47761 -1.42982 22.1004 154 114 86
10.1399 -1.53205 23.0538 146 112 73
5.84607 -1.83521 25.4442 134 117 84
9.73773 -1.46997 22.5122 166 125 98
9.79705 -1.46902 22.4917 148 108 74
-5.5993 -2.02172 28.5367 100 76 44
-0.935465 -1.93976 26.2715 114 106 66
9.67727 -1.51974 23.2666 56 24 18
9.93975 -1.57573 23.6355 120 74 58
6.49571 -1.62542 24.6917 164 124 104
9.83107 -1.54075 23.7827 67 34 26
10.3098 -1.43642 23.1103 158 140 106
10.3887 -1.48208 23.0909 140 126 84
7.66338 -1.75918 25.9638 85 62 30
-1.00957 -1.66836 24.9432 128 110 82
-4.99681 -1.97827 29.6214 90 42 20
0.951164 -2.64463 38.9975 108 104 67
-2.16538 -1.66418 25.8076 52 16 8
8.24351 -1.3634 22.2522 119 63 44
1.83075 -2.41588 37.6658 135 130 100
7.70735 -1.59534 26.0822 63 44 16
8.00057 -1.35319 23.563 106 81 75
8.03166 -1.36276 23.3634 33 10 5
-6.13173 -1.63367 26.5426 98 54 30
8.61468 -1.2877 22.5633 168 119 96
-4.94204 -1.60838 26.0098 66 28 10
7.31939 -1.53691 25.8127 24 35 23
8.51583 -1.28922 22.871 108 54 32
7.84878 -1.30267 23.3535 132 108 96
7.72107 -1.2324 22.6968 18 11 7
-8.79409 -1.5423 25.2157 44 14 10
8.53664 -1.2353 22.9772 68 29 18
-1.24958 -1.48578 26.2008 140 122 99
8.64571 -1.19473 22.894 103 55 32
-6.05811 -1.47695 26.3432 102 65 31
9.33916 -1.15872 23.4102 82 35 16
-1.30835 -1.40722 25.856 85 59 34
6.21527 -1.32444 25.6167 136 104 83
7.20401 -1.32338 25.3326 32 44 32
-1.2404 -1.39944 26.0235 128 112 87
7.8897 -1.13412 22.8363 37 36 34
-8.77387 -1.39278 25.3756 45 11 8
6.91242 -1.22393 24.9547 69 40 24
10.2553 -1.0877 22.919 158 136 104
-6.36092 -1.29482 24.843 130 89 62
7.28731 -1.2256 25.8934 10 7 2
9.69505 -1.09827 23.5312 189 121 92
-6.8252 -1.39278 26.792 93 53 20
7.65792 -1.22165 26.4944 62 78 62
-4.42091 -1.22347 24.8999 92 50 28
-1.3392 -1.29962 26.2816 88 64 40
8.23755 -1.06801 23.6568 20 14 12
10.6424 -1.08685 23.4031 111 90 58
7.27258 -1.06767 25.6595 12 10 6
-6.58659 -1.20693 25.3572 96 54 24
7.45672 -1.04613 25.7103 142 151 138
8.7588 -0.91234 23.0995 63 32 20
-8.92001 -1.21574 25.7482 50 16 11
8.09891 -0.959674 23.8274 148 124 117
9.39297 -0.866181 22.6677 156 92 58
-1.36345 -1.04126 24.926 162 146 124
6.94055 -0.946208 24.6325 12 8 3
-7.13397 -1.09771 25.3994 87 44 26
7.27518 -0.975704 25.4109 38 40 31
17.8826 -1.36845 35.2697 108 108 64
-8.65892 -1.08855 25.1987 126 78 62
9.44653 -0.810516 22.7941 158 101 68
6.98491 -0.872569 24.497 86 86 69
10.7282 -0.84904 23.5847 164 146 124
17.7267 -1.24033 34.5439 96 94 52
-6.90954 -0.894819 24.9925 85 42 21
-6.36936 -0.849957 23.6668 106 64 38
9.41593 -0.651028 22.9662 184 132 110
11.5911 -0.658845 25.3881 144 118 95
8.79865 -0.536505 24.2555 15 12 16
-6.4646 -0.670639 24.0553 90 46 22
-10.0972 -0.721854 26.2155 140 114 86
8.10445 -0.434502 22.9868 42 29 34
8.23628 -0.351633 23.3084 93 68 70
6.00785 -0.391854 25.2615 150 118 92
11.3538 -0.324768 25.1902 150 116 94
-5.79369 -0.425138 23.5818 124 74 49
-1.3763 -0.477541 28.322 142 124 95
7.19099 -0.350055 26.7448 76 46 22
9.8606 -0.223196 23.2523 150 128 105
11.3683 -0.217598 25.531 146 90 64
-3.26852 -0.36971 26.9736 118 71 54
11.2348 -0.191345 25.0532 145 94 72
-3.47082 -0.335911 26.4071 138 89 73
7.48092 -0.195469 24.8795 101 80 44
-3.45996 -0.341303 27.6565 121 72 56
-5.72257 -0.260774 23.5643 55 12 4
-3.30627 -0.276969 25.602 122 72 54
-3.42813 -0.229036 25.8575 121 73 56
-5.47521 -0.185181 23.0896 67 21 10
-3.45049 -0.183105 25.6082 124 78 58
-3.75741 -0.227791 29.0144 126 77 60
8.36945 0.131504 22.8646 168 124 100
11.4569 0.214003 26.6112 142 128 110
7.09731 0.194745 26.4196 100 75 50
7.18061 0.163029 26.5114 94 72 43
-9.26574 -0.00506175 25.8367 126 97 74
10.6002 0.262687 24.9384 108 93 77
-8.95844 0.0753116 25.919 146 126 106
7.04576 0.270857 26.1846 91 67 40
7.18479 0.296443 23.4233 172 104 70
11.0847 0.323152 25.762 70 54 28
-5.09797 0.207086 24.4537 98 52 32
10.6497 0.495702 24.9869 55 40 24
-5.62023 0.262093 24.7799 120 76 60
-5.2294 0.206193 23.2815 94 49 32
-5.20618 0.219034 25.6827 85 39 24
6.71697 0.35925 25.8077 67 41 24
-5.25803 0.220107 23.7528 96 49 30
-5.23505 0.233182 24.1719 103 57 36
-5.24867 0.235825 24.7188 104 57 36
-3.62239 0.275254 29.596 186 138 118
7.62009 0.400519 26.5514 84 67 35
7.73468 0.411649 26.6975 94 79 48
-3.93776 0.331846 26.8752 161 112 90
9.40682 0.504564 24.4558 89 52 30
9.67911 0.528494 24.1374 111 84 66
-5.57369 0.33097 24.0718 130 87 72
7.57981 0.543363 25.3073 151 110 84
7.43442 0.510561 24.4649 180 116 84
11.3646 0.491112 25.6551 112 94 64
-4.97251 0.329024 25.5368 82 54 34
11.7713 0.623919 26.1648 149 134 108
9.39806 0.63331 24.2838 58 32 20
11.8309 0.696997 26.0816 139 123 96
-8.92368 0.406943 23.0305 159 144 122
9.06387 0.66566 23.7488 86 57 42
11.8029 0.764353 25.904 137 119 91
7.55973 0.683161 23.5455 154 116 91
7.73245 0.746477 23.8165 156 122 97
9.83497 0.754366 24.085 124 98 74
11.3086 0.784413 25.5627 64 38 14
-8.91608 0.473751 22.3293 156 116 94
-8.46246 0.474052 22.1509 160 140 118
-7.43428 0.527753 24.5699 144 96 72
9.23073 0.793665 24.1796 90 58 42
-9.07249 0.49852 22.5291 151 114 91
-3.21268 0.637515 27.214 192 146 122
-8.83207 0.554599 21.7944 132 60 44
-9.17251 0.554432 22.3234 157 138 116
-9.64833 0.59162 23.6302 160 124 100
-9.16635 0.624535 22.3781 118 52 24
9.16971 1.0074 23.9704 111 92 77
7.82586 1.01985 23.5316 136 106 90
12.1567 1.1515 26.0398 142 117 92
11.8292 1.22103 25.5144 114 75 42
-10.1702 0.741398 21.4227 151 122 104
10.1674 1.1807 23.7199 140 122 102
11.0809 1.20445 24.9345 87 64 48
11.3089 1.23628 25.0777 55 27 12
12.0477 1.24778 25.5534 136 106 81
-8.37186 0.874494 22.8446 148 132 110
-10.0528 0.829437 21.4572 108 72 40
8.60556 1.25608 23.8475 105 73 51
8.38381 1.3004 24.0607 22 18 16
10.2766 1.36995 23.9704 56 44 28
11.8087 1.40567 24.9891 156 124 98
-8.35737 1.18198 22.2449 113 24 16
-9.06699 1.47101 26.6536 162 116 90
-3.84909 1.60866 26.8381 186 138 116
11.4489 1.74955 25.5311 46 26 18
-8.28492 1.26343 22.1973 162 128 108
-8.40836 1.30176 22.2112 149 88 74
-9.5518 1.68072 28.0235 162 114 88
8.20692 1.76948 23.9269 158 122 102
-9.04876 1.4737 23.7611 164 133 112
-8.96332 1.46407 23.0358 154 102 90
-9.09799 1.48089 23.5325 156 104 88
-8.81737 1.45054 22.9804 166 124 104
-8.98338 1.4583 22.6378 147 94 84
-8.9499 1.46209 22.7988 149 98 87
0.349063 1.9497 27.8476 108 90 60
11.4645 1.96699 24.4271 144 129 106
0.463471 2.02371 26.3453 84 56 35
10.472 2.13092 25.1862 122 96 78
-0.553196 1.87324 23.6063 146 78 62
-0.419909 2.23679 28.0807 134 61 42
0.997083 1.69643 21.1999 164 118 100
-9.45384 1.60301 21.8424 134 100 48
-9.48318 1.68853 21.909 154 128 94
0.220331 1.94276 23.8367 92 52 28
-9.75839 1.76846 22.1602 154 123 85
-9.7694 1.7686 22.033 141 107 68
-1.03022 2.12568 24.0815 153 76 61
0.418668 2.03754 22.145 104 42 26
10.2481 2.40261 23.7598 142 113 96
-9.70399 1.7714 21.2333 118 20 12
5.60011 2.61638 27.051 118 99 73
10.1767 2.56138 24.9747 120 76 52
-10.8396 2.52753 28.7575 151 130 109
-10.8353 2.54745 28.9707 130 106 78
11.3261 2.56925 24.5072 126 103 87
5.80219 2.87749 28.3834 112 96 70
5.58584 2.78912 26.8594 118 100 78
9.442 2.49192 23.131 175 148 140
-0.220373 2.23938 21.8462 94 21 17
-4.98001 2.7314 27.4364 96 43 26
-1.02058 2.38424 23.4596 134 42 30
0.49057 2.33819 22.6296 120 24 17
5.73188 3.03736 28.11 108 92 68
-0.359724 2.29952 21.8996 26 12 8
-1.11252 2.35485 23.6849 128 68 45
11.7124 2.87016 25.5197 154 141 125
11.7484 2.91625 25.4116 141 128 112
-1.03349 2.39454 23.0629 132 38 24
-0.874052 2.29928 22.1574 111 22 18
