ply
format ascii 1.0
element vertex 1251
property float x
property float y
property float z
property uchar red
property uchar green
property uchar blue
end_header
-0.189352 0.321457 2.27105 0 255 0
-0.308423 0.293848 2.2466 0 255 0
-0.481597 0.2946 2.2783 0 255 0
-0.646898 0.344566 2.28405 0 255 0
-0.535406 0.338384 2.23275 0 255 0
-0.21037 0.330273 2.14677 0 255 0
0.00854051 0.336005 2.10456 0 255 0
0.188944 0.329861 2.03104 0 255 0
0.483895 0.311753 2.06098 0 255 0
-1.17302 0.43467 2.12622 0 255 0
-0.915401 0.000542636 2.17862 0 255 0
-0.644301 -0.0308294 2.18082 0 255 0
-0.221371 0.0506996 2.23395 0 255 0
-0.211008 -0.218124 4.26698 166 114 122
-0.222199 -0.163299 4.22161 170 40 36
-0.185424 -0.0765824 4.2463 178 45 58
-0.203881 0.107586 4.22504 188 71 26
-0.135102 0.11807 4.24317 198 40 66
-0.236725 0.133158 4.23197 151 31 28
-0.0973153 0.134479 4.24921 186 51 85
-0.248045 0.14324 4.30065 164 48 30
-0.0915117 0.146261 4.25394 204 202 216
-0.261606 0.154473 4.26298 159 100 98
-0.261246 0.168192 4.26391 178 158 148
-0.139436 0.190896 4.20259 215 221 212
-0.256819 0.189091 4.26543 172 168 146
-0.0184832 0.159231 4.68141 191 201 213
-0.240083 0.194927 4.2212 202 194 140
-0.274036 0.240769 4.1685 179 182 177
-0.261513 0.237095 4.26467 186 186 169
-0.274477 0.243784 4.18454 164 164 150
-0.10667 0.287206 4.24535 206 229 234
-0.0590782 0.295352 4.25753 167 176 179
-0.105031 0.299252 4.23405 202 224 231
-0.291255 0.313737 4.24206 164 148 148
-0.272088 0.316124 4.27593 166 95 80
-0.2677 0.312327 4.28801 186 141 116
-0.114385 0.317781 4.24754 203 226 239
-0.0790902 0.313624 4.20555 194 212 218
-0.335959 0.324032 4.15221 166 112 114
-0.0517355 0.348555 4.25714 197 174 8
-0.0729262 0.356956 4.22453 221 213 100
-0.325324 0.364297 4.08759 145 40 25
-0.0209867 0.378152 4.28428 210 189 72
-0.184984 0.38714 4.17698 172 168 145
-0.370775 0.393012 4.12911 189 153 137
-0.277934 0.386244 4.06781 192 62 78
-0.181719 0.393923 4.20618 170 172 158
-0.217311 0.401621 4.19257 144 72 18
-0.0298581 0.398635 4.27315 214 184 43
-0.0278455 0.404004 4.2714 213 181 28
0.00570885 0.418348 4.34451 204 190 116
-0.0950104 0.420073 4.24608 227 198 28
-0.177675 0.427937 4.22237 162 140 46
-0.0540825 0.43323 4.24738 230 190 0
-0.154405 0.441325 4.23165 218 182 0
-0.0741623 0.446202 4.25862 232 209 74
-0.0317683 0.440476 4.24727 221 172 0
1.1187 0.449034 4.70532 156 160 165
-0.0105469 0.45282 4.29216 202 162 4
1.14236 0.457214 4.73726 150 148 142
-0.099489 0.457449 4.21986 218 194 66
0.0121898 0.46114 4.29702 208 184 96
-0.0119735 0.472477 4.26741 170 126 60
-0.00827947 0.473804 4.26686 174 122 10
-0.193317 0.474747 4.19759 156 129 55
-0.153168 0.494994 4.17811 52 28 26
0.000606795 0.509563 4.27702 209 152 6
-0.29103 0.532472 4.23285 138 130 58
-0.037709 0.535675 4.25691 238 122 26
-0.011911 0.533408 4.25435 178 80 4
-0.0424952 0.53859 4.2438 212 117 1
-0.0722322 0.538211 4.24414 237 140 18
0.113757 0.563228 4.46521 139 106 74
0.16311 0.552975 4.47023 136 104 73
-0.310709 0.555318 4.26379 133 96 3
-0.138691 0.550286 4.24344 73 18 15
-0.101043 0.546944 4.22895 198 161 40
-0.0864541 0.543465 4.22499 216 182 26
-0.122238 0.557399 4.21172 62 12 2
0.0410854 0.57145 4.31503 174 134 30
-0.285601 0.585942 4.29804 145 108 8
-0.0165314 0.569775 4.24928 126 88 7
0.111494 0.609234 4.55829 140 106 74
-0.0481918 0.583863 4.24182 220 183 0
-0.0111039 0.586374 4.27057 108 89 31
-0.97874 0.682128 4.71663 140 105 47
-0.00688313 0.59127 4.26039 95 84 35
-0.24567 0.595947 4.22277 148 190 190
0.0258394 0.608573 4.29888 200 173 76
-0.0667362 0.601718 4.22359 207 165 0
-0.0125386 0.609099 4.25706 188 152 39
-0.240277 0.619021 4.24919 154 128 44
-0.0031779 0.619428 4.29001 195 170 66
0.0237294 0.622007 4.29025 214 185 77
-0.24934 0.618043 4.22987 138 106 20
-0.254375 0.620822 4.23837 146 108 8
-0.220707 0.630262 4.25485 174 127 2
-0.0195825 0.625258 4.25545 208 161 0
-0.0131551 0.627286 4.26752 198 146 0
0.0227385 0.629191 4.27915 212 182 56
-0.00789332 0.638995 4.26871 152 120 16
0.000455111 0.647569 4.27906 158 128 4
0.0151716 0.65168 4.29722 202 178 20
-0.231826 0.673518 4.26155 177 126 0
-0.231258 0.690234 4.31555 178 126 0
-0.173256 0.682678 4.3061 192 142 0
0.00424797 0.675633 4.28079 199 162 0
-0.226211 0.699303 4.28831 175 120 0
-0.0782519 0.69183 4.24967 206 164 0
0.0135136 0.696844 4.28863 80 33 2
-0.177188 0.711877 4.27581 189 136 0
-0.00562775 0.705201 4.2813 104 60 0
0.124566 0.700623 4.26638 144 109 62
-0.0248755 0.709545 4.26617 92 54 0
0.172974 0.70401 4.23442 136 102 62
-0.237208 0.730335 4.30998 76 38 0
0.0551337 0.715836 4.28158 140 98 39
-0.230338 0.727726 4.29592 86 46 6
-0.224476 0.726522 4.28347 82 45 0
-0.215202 0.731542 4.2941 130 89 15
-0.210482 0.731324 4.28437 146 100 10
-0.203512 0.73525 4.29559 127 78 1
-0.20079 0.736258 4.29217 122 76 1
-0.195305 0.733364 4.2819 114 70 0
-0.189663 0.733613 4.28132 113 72 10
-0.185946 0.732038 4.27476 86 49 6
-0.176185 0.730855 4.2718 74 34 0
-0.102621 0.727544 4.25982 164 120 26
-0.0985554 0.725737 4.2511 120 87 40
-0.171213 0.730576 4.26796 92 46 4
-0.116706 0.728952 4.26084 132 84 6
-0.114688 0.723879 4.23927 84 42 0
-0.16613 0.73134 4.26424 122 74 5
-0.158738 0.731054 4.26371 162 114 6
-0.151443 0.732078 4.26617 128 82 4
-0.146084 0.731473 4.26685 119 72 1
-0.138674 0.735209 4.27991 118 75 0
-0.13725 0.730682 4.25936 97 52 0
-0.129847 0.731526 4.26794 126 80 6
-0.123104 0.731422 4.2719 122 73 4
-0.088846 0.769124 4.28739 144 96 1
-0.92907 0.815272 4.36272 133 96 48
1.10547 0.804335 4.59502 138 110 66
-0.0446506 0.774797 4.17553 140 94 10
-1.04247 0.831084 4.28084 134 100 54
-0.914768 0.820808 4.22814 132 96 45
-0.993059 0.827357 4.24054 137 100 57
-0.885605 0.818918 4.17621 134 100 42
-0.868682 0.816904 4.07761 135 97 50
-0.809013 0.881554 4.2421 132 97 32
0.0946046 0.795166 3.90779 137 103 52
0.15781 0.786653 3.90597 136 102 50
0.433892 0.793637 3.94688 142 110 64
-0.128834 -0.384954 4.48512 188 198 209
-0.21612 -0.0583578 4.22353 178 62 26
-0.112969 0.0404984 4.25601 156 108 122
-0.246109 0.141598 4.21275 176 64 56
-0.297 0.327193 4.10984 179 74 74
-0.26094 0.330147 4.13028 157 56 70
-0.0920437 0.330327 4.1958 196 216 221
-0.112032 0.402807 4.20808 200 166 38
-0.0910278 0.427147 4.25661 232 203 40
-0.23178 0.491271 4.22695 164 78 4
0.00814252 0.543922 4.25518 232 196 6
-0.222907 0.547651 4.2281 170 112 6
0.0262989 0.609197 4.29328 198 168 72
-0.202897 0.655501 4.24006 190 140 0
-0.105905 0.730481 4.27972 140 101 26
0.0658032 0.72236 4.25391 150 108 57
-0.0511708 0.735432 4.23785 148 98 0
-0.0129306 0.743106 4.22686 143 97 5
-0.0493291 0.80527 4.26736 144 98 8
-0.99193 0.837995 4.21518 132 94 51
-0.985641 0.843901 4.14618 144 106 52
-0.161191 -0.0673309 4.28255 183 28 40
-0.215782 0.195722 4.20899 190 162 95
-0.0986542 0.275887 4.17861 203 224 234
-0.16117 0.380062 4.22538 190 193 176
-0.0871382 0.385318 4.21033 192 186 150
0.00554423 0.432103 4.31381 212 194 94
-0.231713 0.591428 4.23196 192 196 124
-0.0186102 0.725874 4.2431 149 101 3
-0.106258 0.838913 4.16966 143 98 8
-0.133885 -0.338549 4.44929 187 196 204
-0.115897 0.130931 4.22617 204 38 66
-0.0917513 0.233531 4.19279 172 183 185
-0.147893 0.270536 4.16711 142 142 126
-0.0707341 0.327369 4.22618 216 214 128
-0.128517 0.476194 4.21531 170 143 44
-0.00771006 0.529774 4.27018 212 108 2
-0.255031 0.550974 4.2114 158 174 137
-0.199689 0.59773 4.23231 192 144 2
-0.0837772 0.61371 4.22683 222 176 1
-0.00309095 0.646333 4.28145 144 108 0
-0.974213 0.724141 4.54821 140 106 52
-0.265613 0.722243 4.32488 108 57 3
0.298103 0.708829 4.18289 146 111 68
-0.130826 -0.405892 4.47556 188 196 207
-0.124784 -0.331135 4.51918 183 194 202
-0.121381 -0.288706 4.51908 184 194 202
-0.227077 -0.147514 4.01288 219 186 188
-0.123251 -0.244063 4.38402 186 196 204
-0.189062 -0.184843 4.26395 162 113 127
-0.18345 -0.179643 4.2972 151 106 120
-0.181982 -0.172081 4.28389 141 88 102
-0.177968 -0.161889 4.29072 152 99 113
-0.24676 -0.126954 4.23034 172 116 118
-0.11042 -0.156901 4.55797 188 198 204
-0.213928 -0.0116364 3.97421 173 58 24
-0.119622 0.0501363 4.16538 176 140 152
-0.204712 0.106832 4.34087 184 52 18
-0.207834 0.126048 4.2678 186 39 19
-0.143096 0.146 4.19787 200 148 150
-0.19877 0.150845 4.20092 122 46 31
-0.125626 0.138168 4.33381 142 136 139
-0.109625 0.14522 4.2481 171 124 150
-0.215273 0.152503 4.22376 148 90 55
-0.211807 0.163866 4.19461 62 53 31
-0.256581 0.164318 4.23959 136 58 40
-0.261708 0.162857 4.26878 160 113 112
-0.202741 0.21853 4.19153 185 169 114
-0.0658839 0.213909 4.44973 201 222 236
-0.0644097 0.222402 4.47049 199 222 234
-0.0850959 0.234664 4.20603 161 178 191
-0.259939 0.24276 4.22406 198 202 182
-0.271591 0.249765 4.16986 165 159 144
-0.237228 0.275012 4.1564 134 119 80
-0.232817 0.276692 4.13969 133 118 78
-0.0718449 0.284144 4.22155 193 212 218
-0.0596775 0.30376 4.27023 177 174 152
-0.311066 0.313611 4.19387 152 130 128
-0.31165 0.317246 4.09778 161 99 102
-0.273776 0.31508 4.23423 168 84 85
-0.0848209 0.310378 3.92058 200 196 154
-0.321158 0.3176 4.16818 180 120 124
-0.0791071 0.313934 4.02355 210 205 131
-0.321959 0.322089 4.01966 179 119 121
-0.272962 0.320147 4.12841 194 90 91
-0.0777163 0.317668 4.04311 213 206 103
-0.0466471 0.330041 4.27655 201 198 158
-0.329908 0.345299 4.11633 123 56 48
-0.36109 0.356062 4.14062 178 126 114
-0.231824 0.353835 4.10181 203 138 154
-0.0502469 0.359651 4.57871 226 214 95
-0.0736262 0.359032 4.22368 224 206 68
-0.323141 0.371407 4.11367 165 33 18
-0.0745888 0.364868 4.22814 226 208 66
0.179403 0.336222 3.1463 182 190 200
-0.0758086 0.367966 4.21979 224 201 35
-0.296404 0.374584 4.08675 202 38 38
-0.0875091 0.382147 4.21516 196 193 169
-0.0909709 0.385191 4.20968 232 230 190
-0.0489871 0.392396 4.23314 226 190 0
-0.235469 0.398667 4.11158 202 46 78
-0.0285811 0.407035 4.25495 224 192 42
-0.162474 0.429474 4.20608 213 173 0
-0.167141 0.432853 4.19263 198 155 2
-0.205555 0.475589 4.21452 180 159 2
-0.196016 0.472031 4.14905 178 156 52
-0.124983 0.469834 4.14212 231 198 11
-0.124673 0.483718 4.25938 81 50 18
-0.124186 0.475284 4.1602 218 186 56
0.437741 0.511465 4.75184 159 142 124
-0.0833914 0.486657 4.2836 236 188 22
-0.0703485 0.465771 4.02124 246 170 75
0.574488 0.621658 6.04461 162 147 140
0.423983 0.554812 5.19914 163 150 140
0.500978 0.616399 5.92771 156 142 140
0.425682 0.593268 5.61169 154 142 134
0.149486 0.538798 4.77744 144 128 120
-0.154643 0.4969 4.19751 55 30 27
-0.157952 0.461103 3.77143 47 18 17
0.255646 0.543303 4.73933 143 114 82
-0.110292 0.515 4.19453 240 217 198
-0.10624 0.515922 4.20419 244 180 97
0.0748822 0.551226 4.45966 136 103 78
0.215348 0.54814 4.4715 144 111 77
-1.048 0.649035 4.93054 156 134 103
-1.08887 0.654267 4.95105 156 131 109
-0.978941 0.601561 4.48447 159 138 112
-0.25971 0.54642 4.18845 162 180 148
0.107357 0.592454 4.63069 136 104 74
0.128013 0.590763 4.57828 142 110 76
-1.5498 0.688365 4.96866 167 166 171
-1.54088 0.69322 4.97238 161 147 140
0.00333515 0.560145 4.25572 240 206 14
-0.109639 0.573507 4.28227 208 174 6
-0.17208 0.565564 4.19694 116 83 4
-0.121614 0.559242 4.15408 204 168 6
0.159913 0.600995 4.59118 136 102 72
0.155784 0.606225 4.54246 138 105 75
-0.0163593 0.576689 4.24411 122 90 10
0.171054 0.604779 4.50525 141 108 74
0.10727 0.616108 4.5156 146 114 76
0.371918 0.775251 5.59421 142 107 66
0.191518 0.619172 4.40667 142 108 70
-0.221008 0.619953 4.28814 166 118 2
0.163259 0.637096 4.44622 143 108 68
0.0855382 0.633645 4.4485 141 106 70
0.137483 0.634938 4.44487 143 109 72
-0.230903 0.581592 4.00754 138 98 2
-0.243976 0.613419 4.21567 152 132 51
-0.263377 0.600019 4.11777 152 128 31
-0.231898 0.625661 4.27648 156 112 2
0.213337 0.669245 4.63681 142 110 64
0.102947 0.640883 4.40552 146 112 74
0.263572 0.605827 4.22119 146 114 68
0.224093 0.66135 4.52517 142 108 70
-0.20794 0.670795 4.49769 187 140 1
0.121763 0.653098 4.45058 146 104 68
0.246057 0.653711 4.45865 146 111 66
0.189763 0.646249 4.37895 138 105 66
0.48832 0.871033 5.82086 144 110 68
0.317151 0.701664 4.70029 145 110 70
0.198236 0.670575 4.42421 140 105 68
0.154038 0.670994 4.40174 144 106 66
0.227631 0.701033 4.5822 140 104 69
0.148264 0.684113 4.40144 142 106 65
0.0456844 0.680428 4.34708 136 94 11
0.0414783 0.693765 4.35556 122 78 13
0.0290821 0.688554 4.3076 104 60 2
0.306117 0.69573 4.35094 142 110 67
-0.261635 0.722726 4.32302 96 54 4
-1.07072 0.783257 4.49754 137 100 57
0.320344 0.817539 4.84902 144 108 63
-0.0375451 0.714025 4.26973 105 63 1
-1.01945 0.762455 4.35606 132 97 58
-0.0559227 0.71235 4.23439 107 60 2
-1.00781 0.769119 4.37615 134 96 55
-1.00343 0.781399 4.43701 140 106 56
0.0209644 0.720714 4.2564 138 94 12
-1.04791 0.800525 4.47068 137 100 57
0.000259708 0.73097 4.26664 146 100 2
0.0241441 0.736885 4.24229 138 96 19
-0.995401 0.790847 4.40817 136 100 56
0.093011 0.701859 4.11621 144 110 67
0.0958734 0.70947 4.13422 145 112 67
-0.0244667 0.717138 4.15016 146 101 0
-0.993807 0.768587 4.25985 134 97 58
0.161149 0.714441 4.14841 138 104 60
-0.996123 0.797292 4.37738 141 108 56
0.176076 0.736133 4.22466 140 104 63
-1.11671 0.884593 4.69836 139 106 61
0.17971 0.744281 4.24359 139 104 65
0.155938 0.723968 4.11441 140 105 64
-0.951309 0.80394 4.34489 138 101 50
-0.0215566 0.775706 4.32804 140 96 2
-0.0512933 0.750142 4.17054 146 100 2
0.150782 0.653821 3.78377 142 104 62
-1.05548 0.819922 4.36797 138 104 58
0.0339759 0.753979 4.18123 135 92 30
0.150682 0.731693 4.08601 139 104 60
0.20582 0.656086 3.7636 146 112 68
-0.916529 0.814551 4.28505 138 102 58
0.000775947 0.754901 4.13915 144 100 28
-0.0563855 0.73955 4.03185 146 104 16
0.00258131 0.762881 4.11104 143 100 23
-0.10837 0.665277 3.71026 141 97 0
-0.966157 0.833028 4.29169 136 100 55
-0.0910471 0.799535 4.19554 144 97 4
5.88223e-05 0.7678 4.05317 140 97 24
0.195796 0.815035 4.31462 140 102 65
-1.09648 0.849896 4.31483 136 99 54
-0.99649 0.882416 4.42697 138 102 52
0.111809 0.754902 4.02412 147 110 63
-1.03484 0.844144 4.22512 135 100 56
0.15822 0.783927 4.1015 141 104 57
-0.941159 0.85266 4.22397 136 98 50
0.337116 0.968324 4.79391 138 103 59
0.209453 0.775741 4.04597 140 104 62
-0.964203 0.826065 4.10536 140 104 52
-0.0134697 0.787382 4.05392 140 98 16
0.106815 0.764294 3.96874 150 116 70
0.199353 0.662351 3.58393 146 112 64
-0.85445 0.893457 4.34608 138 102 48
-0.0452978 0.75705 3.88645 140 94 19
-0.966775 0.879148 4.23821 134 98 46
0.349077 0.794326 4.05471 148 112 58
-1.07722 0.876493 4.17065 136 100 52
-0.914797 0.935975 4.41628 139 102 40
0.00350677 0.823664 4.11303 138 94 27
0.127857 0.770867 3.93102 142 105 60
-0.926413 0.870878 4.18931 136 100 48
0.0761329 0.744702 3.82358 143 104 57
-0.00126416 0.819069 4.07369 138 96 28
-0.960378 0.875904 4.19646 138 99 50
-0.00130384 0.819467 4.06075 134 92 28
0.0818316 0.758248 3.8492 142 102 60
-0.927345 0.908887 4.27749 138 102 39
0.178362 0.642091 3.42714 143 107 56
0.0996907 0.792866 3.93935 139 104 60
0.247008 0.800208 3.9799 142 106 54
-0.969008 0.83999 3.99401 137 96 50
-1.01832 0.951485 4.36922 136 99 50
0.019979 0.948977 4.44941 135 91 24
0.0577815 0.833379 4.06779 139 98 40
-0.250042 -0.150077 4.28068 180 130 132
0.415863 -0.310911 4.95036 198 212 232
-0.196328 -0.064916 4.21084 178 40 46
-0.107224 -0.11352 4.58057 188 197 205
-0.225926 0.252578 4.1433 200 202 179
-0.264681 0.254813 4.18562 180 174 154
-0.192772 0.269406 4.17223 154 117 84
-0.220156 0.275869 4.19729 128 114 91
-0.0785918 0.311966 4.20417 192 212 217
-0.334518 0.326853 4.13983 174 106 94
-0.304445 0.327422 4.11438 167 46 48
-0.366948 0.37069 4.14268 176 120 110
-0.0196211 0.380524 4.31521 208 190 84
-0.210265 0.38485 4.15986 198 201 197
-0.226852 0.402224 4.12802 126 50 32
-0.0226712 0.420756 4.2477 248 218 62
0.0031637 0.434477 4.27981 214 194 88
-0.256433 0.455004 4.18738 175 186 154
-0.107858 0.457533 4.24934 226 199 26
-0.20246 0.508147 4.19482 95 28 4
-0.117161 0.510284 4.18905 135 86 76
0.104831 0.58508 4.67423 136 102 76
0.168702 0.569564 4.40459 137 104 74
0.0461759 0.589549 4.33384 146 112 64
0.0550928 0.632629 4.39895 146 108 46
-0.256783 0.619809 4.24358 165 132 41
-0.224678 0.63264 4.25908 173 127 0
-0.307519 0.699402 4.40129 134 90 6
-0.17638 0.680528 4.2371 196 142 0
-0.762793 0.777844 4.63377 140 103 42
-0.0480594 0.756293 4.24826 144 97 4
-0.108454 0.769234 4.28798 148 100 1
0.10858 0.75343 4.1704 154 120 66
-0.107499 0.791167 4.27375 141 94 0
0.0964725 0.750143 4.09834 153 122 68
-0.113076 0.766036 4.08163 144 94 2
-0.959467 0.844247 4.17681 134 98 52
-0.891165 0.862974 4.1486 136 102 50
-0.249738 -0.123672 4.25355 158 106 112
-0.108103 -0.137534 4.56232 186 196 202
-0.264129 0.144967 4.25621 177 151 154
-0.050997 0.353258 4.2631 216 191 30
-0.200376 -0.127716 4.25328 186 30 40
-0.15312 0.670997 4.30751 204 154 0
-0.256366 0.0241296 4.24413 160 124 127
-0.114999 0.207116 4.18601 204 209 188
-0.205804 0.432112 4.17888 168 134 0
-0.253929 0.441261 4.10236 156 160 114
-0.832524 0.62872 4.91858 150 120 75
-0.873806 0.63361 4.9352 156 131 93
-1.02525 0.719262 4.70377 144 106 54
-0.160939 0.658511 4.44645 206 160 0
-0.987288 0.721706 4.61109 143 102 55
0.122565 0.723202 4.28828 144 108 57
0.145764 0.711526 4.2199 144 102 60
-0.940613 0.78511 4.40852 136 95 52
0.895204 0.734499 4.34725 142 108 71
-0.0570369 0.859883 4.09981 138 94 22
0.137762 0.80781 3.97564 140 100 55
-0.129819 -0.391247 4.47952 188 198 208
-0.225341 -0.214717 4.27709 203 140 145
-0.215762 -0.0790217 4.23342 166 38 18
-0.204056 0.118551 4.20515 182 48 16
-0.20296 0.131559 4.19846 212 74 37
-0.184557 0.136366 4.19412 200 39 46
-0.136522 0.145971 4.21094 185 144 149
-0.0960515 0.142821 4.24961 152 52 84
-0.261603 0.161296 4.24423 149 76 77
-0.264351 0.162061 4.27069 205 189 196
-0.165499 0.166481 4.17777 60 58 66
-0.157149 0.168425 4.18743 55 56 54
-0.240074 0.182911 4.30498 170 162 117
-0.239337 0.199212 4.22567 199 191 138
-0.145081 0.225084 4.17686 199 210 202
-0.104045 0.234475 4.19681 191 198 190
-0.112085 0.236074 4.1708 196 200 187
-0.266335 0.249123 4.19753 169 167 144
-0.240252 0.272144 4.20355 136 120 82
-0.11448 0.270485 4.18741 182 200 210
-0.236299 0.274192 4.1971 132 114 77
-0.231922 0.275252 4.18788 133 116 84
-0.136802 0.283289 4.16735 192 215 220
-0.266164 0.318467 4.1505 188 90 89
-0.149727 0.329673 4.2944 196 204 195
-0.349347 0.338802 4.21323 180 173 162
-0.0693282 0.336698 4.21418 216 202 81
-0.35991 0.349193 4.14089 165 140 128
-0.365949 0.363126 4.15248 190 145 146
-0.0723621 0.36558 4.22752 222 206 62
-0.073358 0.369487 4.22817 223 201 44
-0.199496 0.368329 4.18025 148 122 100
-0.275582 0.380024 4.0681 210 66 72
-0.26858 0.385467 4.08588 164 88 107
-0.202312 0.399264 4.17459 126 109 72
-0.212546 0.403682 4.14627 134 113 55
-0.0262459 0.410666 4.27167 218 184 16
-0.368541 0.40708 4.11923 187 170 165
-0.2031 0.430263 4.13988 172 144 0
-0.289539 0.446435 4.1699 120 128 92
-0.199009 0.472514 4.21271 166 138 0
-0.297471 0.482387 4.31352 68 34 2
-0.298581 0.485124 4.30277 76 47 2
-0.127645 0.47569 4.1972 162 130 30
-0.115116 0.478413 4.20765 227 184 1
0.0244053 0.489841 4.35114 226 188 11
-0.122254 0.482226 4.21596 82 49 9
-0.0735113 0.482654 4.2109 232 170 68
-0.0590398 0.485121 4.24246 234 158 73
-0.115925 0.486258 4.20118 192 138 52
-0.000712032 0.489898 4.27078 230 182 12
-0.00302554 0.500624 4.26236 214 154 3
-0.301954 0.504649 4.222 172 142 54
-0.107598 0.517874 4.20874 239 209 168
-0.192581 0.521902 4.19025 76 34 36
-0.179444 0.530068 4.16225 60 10 16
-0.137092 0.541548 4.19267 73 29 35
-0.312731 0.551203 4.26579 155 112 4
-0.133921 0.545261 4.21028 76 20 26
-0.171802 0.544549 4.19381 58 8 10
-0.11849 0.557973 4.20605 70 18 1
-0.164933 0.568487 4.21017 148 110 12
-0.0121831 0.576098 4.267 109 75 3
-0.235582 0.618677 4.25161 140 104 12
-0.266106 0.618934 4.24188 144 124 32
-0.243564 0.62288 4.26471 165 144 67
-0.2228 0.619359 4.2441 167 123 5
-0.261976 0.623868 4.25014 164 119 1
-0.219785 0.649508 4.31759 178 130 0
0.226428 0.647051 4.33107 141 107 66
-0.0106507 0.641283 4.25505 201 166 8
-0.116945 0.642823 4.25508 209 160 0
-0.0447202 0.677014 4.29067 216 180 0
0.0319938 0.696924 4.32065 128 82 6
-0.279806 0.717004 4.32695 102 52 0
-0.0120636 0.706605 4.2769 115 74 2
0.104191 0.712912 4.24598 145 108 62
0.106917 0.712836 4.23447 150 115 66
0.105133 0.711467 4.21047 146 109 64
0.204731 0.712248 4.24489 139 104 63
-0.0935467 0.724903 4.25379 90 65 21
0.10998 0.720357 4.21758 143 108 62
0.0320985 0.734793 4.25419 136 93 34
0.106702 0.723377 4.19333 144 110 64
0.170767 0.730811 4.1793 138 102 56
0.180189 0.740023 4.20661 138 102 57
-0.0264437 0.753839 4.25299 143 96 1
0.170268 0.73729 4.17038 136 100 55
0.00340118 0.741346 4.20611 138 96 24
-0.00906167 0.753257 4.20516 138 95 8
0.0260047 0.768394 4.22116 141 98 36
0.0347786 0.754874 4.16283 132 90 43
0.199745 0.75134 4.13922 138 102 62
-0.899457 0.79687 4.25549 134 96 44
-0.0557372 0.787419 4.26675 142 96 0
-0.899013 0.80057 4.19333 134 96 42
0.00249891 0.781983 4.191 138 93 27
0.00479484 0.789502 4.16373 136 94 24
-0.0874796 0.792333 4.15295 142 96 10
0.0473595 0.779471 4.1074 133 92 46
-0.79954 0.828859 4.23176 140 102 36
0.329267 0.778249 4.05733 142 110 59
-0.0249745 0.798204 4.08751 136 93 24
0.140399 0.779351 4.00162 141 105 54
0.112955 0.794102 4.0437 140 104 56
-0.0493263 0.845235 4.18569 138 94 15
0.190396 0.795409 4.03476 136 99 56
0.11578 0.794425 4.01592 141 102 56
-0.88174 0.856911 4.15292 132 92 34
-0.169066 0.102762 4.26363 190 42 42
-0.160558 0.142768 4.19797 158 26 48
-0.159873 0.153101 4.19702 224 216 196
-0.18751 0.215752 4.18993 156 138 96
-0.0824405 0.231218 4.19272 179 190 204
-0.157144 0.347486 4.2142 192 198 186
-0.297425 0.35348 4.08266 244 211 200
-0.205786 0.481151 4.19888 172 150 4
-0.191611 0.509704 4.20131 52 14 16
-0.111062 0.516775 4.20894 156 138 130
-0.191325 0.52146 4.20656 92 66 65
-0.0164652 0.539321 4.27256 210 120 17
-0.276447 0.537149 4.18857 132 134 90
-0.015191 0.586543 4.27267 208 180 23
0.0357986 0.594418 4.31342 178 147 81
-0.292612 0.607558 4.31105 164 114 0
-0.279014 0.675009 4.31589 169 116 0
-0.251969 0.699713 4.29643 173 117 0
-0.230058 0.738042 4.22062 134 78 0
0.0942638 0.765775 4.19368 140 104 60
-0.0898206 0.783289 4.20156 144 100 2
-0.176504 -0.135142 4.21873 146 97 108
-0.255164 -0.0208144 4.24516 170 136 141
-0.187882 0.053757 4.29103 202 91 52
-0.211691 0.152971 4.20328 142 78 50
-0.33344 0.329798 4.10756 201 108 95
-0.361022 0.354629 4.14047 154 91 86
-0.294921 0.452025 4.21393 122 118 55
-0.30865 0.508959 4.30707 172 132 1
-0.114458 0.560419 4.2087 160 126 13
-0.22208 0.625712 4.24872 163 119 1
-0.121829 0.654898 4.23992 209 166 0
-0.229296 0.664442 4.27833 182 133 0
0.0375733 0.687514 4.32464 115 74 11
-0.109 0.688223 4.27334 216 172 1
0.0126312 0.704271 4.30741 108 60 4
-0.0704356 0.809581 4.09705 137 94 12
0.0432602 0.820027 4.13133 137 96 49
-0.123564 -0.349161 4.55086 179 189 198
-0.216881 -0.0790537 4.2169 165 30 12
-0.215662 -0.0533637 4.21348 179 71 30
-0.263025 0.245884 4.23004 192 196 173
-0.304847 0.310312 4.26122 173 159 160
-0.365427 0.354738 4.14941 188 174 166
0.879327 0.493794 4.65884 137 108 75
-0.0203125 0.468674 4.1431 218 170 2
0.29787 0.519617 4.69772 160 146 137
0.26229 0.556743 4.6819 144 114 74
-0.192064 0.559626 4.21194 58 17 0
0.0400942 0.591135 4.33916 180 138 33
-0.717651 0.67249 4.76056 136 94 21
0.196064 0.658465 4.41058 140 105 64
0.261679 0.654471 4.34994 144 111 68
0.261576 0.663878 4.24563 140 108 66
0.0465955 0.705945 4.2696 140 97 45
-0.0724592 0.713376 4.22218 100 59 5
-0.0863676 0.717734 4.22541 99 63 0
0.184756 0.715391 4.12846 139 103 63
-0.870136 0.82964 4.25842 137 98 44
0.175336 0.758079 4.01674 138 102 58
-0.90273 0.852577 4.26755 132 93 44
-0.937602 0.941313 4.58647 136 100 37
0.0985159 0.783897 3.93921 138 100 56
-1.0758 0.903653 4.28144 132 93 48
-0.117219 -0.230493 4.53644 179 188 195
0.783753 0.531825 4.53591 146 116 72
-1.31171 0.67467 4.5819 144 114 71
0.132377 0.73267 4.14913 140 101 59
-0.556279 -0.326093 4.57115 188 192 198
-0.695627 0.127071 4.79907 181 180 174
-0.380829 0.253832 4.84328 184 186 192
0.0218179 0.803594 4.12104 135 94 40
0.398367 0.722121 4.11253 144 110 58
-0.197207 -0.225284 4.29586 194 155 166
-0.193326 -0.173012 4.21203 174 123 132
-0.24528 -0.136289 4.23434 176 107 117
-0.415603 -0.160895 4.39872 190 199 209
-0.213231 -0.064149 4.23101 171 50 24
-0.254557 -0.0228719 4.24328 167 124 132
-0.254397 -0.0189079 4.24462 163 116 125
-0.2599 0.07364 4.26717 177 127 132
-0.256265 0.0796178 4.27876 153 96 102
-0.209602 0.138653 4.20576 177 26 10
-0.202137 0.1534 4.13373 150 10 18
-0.210033 0.156255 4.20087 189 142 97
-0.188171 0.162207 4.22508 198 181 142
-0.255554 0.199453 4.26623 168 164 138
-0.222696 0.235706 4.19693 186 179 140
-0.224868 0.275523 4.18948 132 118 88
-0.277427 0.292289 4.23184 182 179 167
-0.0649163 0.315173 4.25108 195 206 212
-0.254315 0.320171 4.2621 167 70 62
-0.333146 0.324527 4.16706 167 122 120
-0.35093 0.354634 4.12504 174 58 37
-0.24243 0.372715 4.11121 202 64 104
-0.312071 0.379722 4.11438 176 28 12
-0.272298 0.388227 4.08725 188 118 134
-0.356652 0.388576 4.09971 160 93 56
-0.372987 0.393742 4.15111 201 172 173
-0.368988 0.404413 4.16146 190 174 178
-0.360925 0.409134 4.12775 108 56 46
-0.253973 0.410413 4.07453 165 134 80
-0.313178 0.421865 4.11464 138 78 25
-0.197214 0.473035 4.19445 186 168 12
-0.207866 0.479347 4.22541 177 150 0
-0.292967 0.480735 4.20895 129 121 41
-0.198123 0.488997 4.23134 159 130 33
-0.245669 0.499369 4.204 184 149 120
-0.0300677 0.50838 4.24147 235 104 0
-0.131008 0.51206 4.23291 67 44 54
-0.170212 0.517853 4.22078 60 26 35
-0.202421 0.534922 4.20434 142 44 21
-0.0523745 0.540071 4.22984 200 132 0
-0.301337 0.536162 4.21476 177 139 57
-0.272113 0.551415 4.19365 144 162 131
-0.00602122 0.583122 4.28758 116 84 17
-0.268913 0.588712 4.25598 142 132 57
-0.224504 0.624829 4.26775 163 120 1
-0.00402798 0.643766 4.27461 140 102 0
-0.684608 0.688637 4.5543 138 98 24
-0.29992 0.707776 4.39068 102 44 2
-0.303342 0.710523 4.39017 138 90 10
-0.287392 0.719411 4.39146 117 64 7
0.185617 0.716091 4.2837 136 102 71
-0.0320127 0.719943 4.2865 96 54 0
0.0574593 0.720062 4.26335 150 112 60
0.0243856 0.724979 4.23973 139 98 42
-0.197637 0.735496 4.31254 188 141 16
0.0473744 0.728315 4.22737 143 104 56
-0.201831 0.738494 4.31387 134 86 0
0.195664 0.738906 4.25843 140 105 60
0.0108244 0.740758 4.24184 146 104 28
0.169599 0.748866 4.15359 140 103 69
-0.0460428 0.75228 4.17207 144 98 8
0.227599 0.761539 4.12303 144 110 70
0.00614188 0.760005 4.13307 146 106 50
-0.217553 0.770205 4.15492 139 88 0
0.31998 0.767643 4.1081 144 111 64
-0.061316 0.797878 4.28459 144 100 3
0.188816 0.764704 4.06834 140 108 62
-0.790425 0.849026 4.49443 141 102 37
-0.896636 0.787855 4.24119 136 98 46
-0.201328 0.813886 4.23267 136 88 2
0.0720439 0.781604 4.08559 140 102 58
-0.796439 0.806872 4.3418 142 104 43
-0.899089 0.797233 4.25029 140 102 48
-0.909304 0.809082 4.25404 136 96 38
0.00563214 0.779197 4.02183 138 100 48
0.284146 0.781298 3.94203 145 113 69
-0.00609633 0.827434 4.13187 139 99 45
-0.157319 0.880065 4.35396 134 88 4
-0.0354398 0.834678 4.13046 142 100 28
-0.0616207 0.789433 3.93352 141 98 46
-0.0979788 0.866593 4.14858 142 96 8
-0.0237739 0.854106 4.1191 138 100 36
0.309668 0.810387 3.89509 144 112 65
-0.083626 0.866988 4.1063 140 96 21
-0.227688 -0.198854 4.21623 163 74 76
-0.180039 -0.159665 4.23562 180 143 154
-0.193657 -0.0971342 4.36868 170 43 24
-0.280383 -0.138899 4.79755 189 197 208
-0.201064 0.133038 4.22434 204 66 22
-0.138388 0.150748 4.1844 178 138 146
-0.258169 0.163101 4.27778 140 70 70
-0.12981 0.287753 4.20946 217 242 249
-0.0731042 0.31479 4.22998 196 210 219
-0.310008 0.314507 4.18547 166 104 111
-0.335437 0.324964 4.17301 179 162 152
-0.33931 0.326279 4.17533 188 180 172
-0.339811 0.332303 4.22987 188 184 176
-0.34523 0.336755 4.21031 188 178 172
-0.355084 0.353875 4.13512 202 106 82
-0.367504 0.366732 4.14814 194 152 150
-0.370856 0.398638 4.17145 190 167 168
-0.115417 0.476308 4.2284 234 197 0
-0.198674 0.47566 4.18873 173 152 38
-0.122137 0.479793 4.17751 220 180 31
-0.144755 0.510078 4.15569 64 38 48
-0.126148 0.51731 4.1817 65 31 46
-0.745106 0.595337 4.64765 161 134 88
-0.740238 0.595433 4.64741 154 124 79
0.0503756 0.569875 4.345 152 116 54
-0.119734 0.560904 4.20092 94 51 4
-0.279888 0.573056 4.29049 124 107 32
-0.124774 0.5623 4.17943 208 172 16
-0.219735 0.6167 4.27446 178 135 11
-0.227178 0.616905 4.24734 158 113 2
-0.262463 0.618818 4.24933 152 122 20
-0.0209895 0.668976 4.24944 216 184 0
-0.977579 0.725427 4.599 138 99 47
-0.911327 0.737178 4.55737 135 96 42
-0.08326 0.72885 4.27536 120 94 50
-1.15173 0.706142 4.15621 140 105 60
0.0735609 0.772846 4.16865 140 102 59
0.204024 0.76784 4.11302 140 107 59
0.220245 0.777692 4.06099 145 111 68
0.209565 0.762943 3.97778 142 106 62
0.167111 0.717775 3.84115 144 109 66
-0.870569 0.782745 4.2041 138 100 46
-0.00591961 0.786607 4.09413 141 104 42
0.0311804 0.771103 4.01942 136 97 52
0.328552 0.799087 4.13123 140 108 64
-0.848654 0.806346 4.22138 136 98 44
0.3274 0.833388 4.15682 142 106 64
-0.0313924 0.771324 3.94874 136 96 45
-1.06333 0.805269 4.1875 132 94 54
-0.878999 0.831989 4.25286 136 94 36
0.377967 0.85446 4.19648 146 112 70
-1.14494 0.884864 4.45322 134 96 50
0.270734 0.797145 3.97491 148 112 70
0.338717 0.819035 4.04018 142 108 66
-0.0364835 0.791525 3.97695 138 96 42
-0.0164657 0.79151 3.95738 135 96 46
-1.03363 0.843758 4.25639 133 94 46
-0.912579 0.918375 4.49115 138 98 36
-0.897364 0.86761 4.29572 134 94 49
-0.205568 0.830477 4.08128 139 92 11
0.0824621 0.78348 3.89388 142 110 62
-0.784141 0.79383 4.02594 142 102 42
0.0920106 0.815494 3.99423 140 103 58
0.0565308 0.789935 3.87893 140 104 58
0.0761262 0.829892 4.01904 140 98 56
0.415467 0.886612 4.18016 140 106 64
-0.852666 0.885773 4.30594 141 102 46
0.0795299 0.788584 3.86761 146 112 66
-0.0857576 0.844586 4.05575 146 104 20
-0.0296233 0.86788 4.13103 142 100 27
-1.00034 0.943172 4.49086 134 92 41
-0.96691 0.855169 4.19021 138 94 46
0.101241 0.808524 3.92495 152 120 72
0.0424711 0.85876 4.06564 140 100 49
0.0897058 0.852673 4.00934 138 97 52
0.259542 0.803353 3.85569 146 113 59
-0.0569202 0.5123 4.29999 244 130 5
0.102161 0.710612 4.23009 151 114 65
-0.475069 0.427887 4.60218 181 164 150
-0.545839 0.775001 4.47815 140 104 38
-0.69511 0.876968 4.23234 146 108 44
-0.500292 0.836168 4.16896 146 109 48
-0.71244 0.742371 4.61464 142 102 38
-0.670926 0.754866 4.63668 136 96 27
-1.34595 0.738395 4.81741 140 102 60
-0.405609 0.759709 4.55012 142 102 38
0.0576506 0.801754 4.05346 140 96 58
-0.205765 -0.266159 4.23118 196 207 220
-0.2005 0.00602969 4.19907 188 54 46
-1.50249 0.730572 4.93363 140 105 66
0.198081 0.733917 4.17315 140 106 59
0.276372 0.770435 4.1229 145 106 60
-1.13097 0.565912 4.75631 184 179 178
-1.40593 0.719224 4.56913 144 106 60
-0.269562 0.87666 4.13277 136 93 25
-0.229591 -0.198027 4.19037 202 204 215
-0.173133 -0.149074 4.24227 176 140 148
-0.22121 -0.0466259 4.16917 174 50 32
-0.211802 0.130974 4.15814 184 38 16
-0.149428 0.151249 4.17252 184 124 126
-0.207602 0.196895 4.17867 196 176 110
-0.174397 0.243523 4.14895 210 219 203
-0.271187 0.242985 4.23972 197 200 203
-0.220071 0.27695 4.18437 131 118 90
-0.252269 0.327689 4.10302 183 93 88
-0.336859 0.330713 4.21735 189 182 167
-0.355874 0.346236 4.16833 192 166 164
-0.358144 0.350269 4.18965 195 182 187
-0.353928 0.350372 4.1904 168 123 120
-0.209278 0.359294 4.17127 178 124 124
-0.363372 0.401157 4.2081 199 170 176
-0.359519 0.407601 4.18968 178 140 144
-0.282847 0.431973 4.16355 127 148 142
-0.201605 0.478889 4.19964 170 148 14
0.0896942 0.508397 4.38108 146 130 125
-0.247019 0.489942 4.19108 122 71 17
-0.300835 0.495053 4.21049 166 138 52
-0.282493 0.500019 4.17291 154 169 136
0.162201 0.673866 4.26723 142 108 70
0.000357628 0.707458 4.28912 127 86 8
-0.280405 0.72331 4.41065 106 54 0
-0.275691 0.726774 4.41179 96 46 0
-0.0595766 0.713618 4.23577 117 76 8
-0.0772883 0.723407 4.25538 120 76 2
-0.0764893 0.728359 4.27873 124 84 12
0.193223 0.777016 4.06467 140 106 69
-0.0131985 0.7784 4.06953 140 102 48
-0.0113046 0.787524 4.03523 142 104 48
0.224625 0.8006 4.03363 142 108 65
0.200091 0.805902 4.04807 142 108 62
0.21058 0.818935 4.05062 142 109 65
0.354759 0.861767 4.12286 142 110 66
0.331788 0.830558 3.96831 144 110 66
0.19674 0.849895 4.07983 143 108 66
0.159617 0.804081 3.90288 145 110 66
-0.0435569 0.814962 3.95016 138 99 46
0.0182679 0.903594 4.19814 142 103 42
0.293678 0.815414 3.82343 143 112 67
0.184755 0.838778 3.90936 145 110 64
0.384981 0.892961 4.07629 144 111 66
-0.00342165 0.824287 3.89716 142 103 55
0.00469382 0.931778 4.2626 144 104 34
-0.141913 0.916072 4.20435 137 93 14
0.0786661 0.848753 3.93996 139 99 54
-0.0472539 0.876753 4.038 140 100 34
0.190755 0.829658 3.84032 138 104 63
0.230798 0.787675 3.67729 142 111 68
-0.0668213 0.874518 4.02529 143 102 38
-0.0258016 0.887683 4.02747 142 102 47
0.0475385 0.874614 3.99576 141 104 55
0.0878437 0.860249 3.92864 139 102 57
0.186774 0.851378 3.88264 144 110 64
0.326287 0.819595 3.74621 140 106 67
-0.217728 0.863685 3.98968 136 92 11
-0.166916 0.916976 4.14619 140 96 12
-0.0630295 0.870839 3.95307 144 102 43
-0.00919561 0.869486 3.94527 142 102 53
0.332691 0.822581 3.7346 138 106 68
-0.151068 0.920908 4.14933 141 96 22
-0.0810176 0.892026 4.02371 142 101 30
0.0110222 0.884026 3.9285 136 97 56
0.0675504 0.903663 4.00934 139 103 51
0.0763253 0.890373 3.94749 138 100 47
0.376024 0.229554 4.53917 194 206 222
-0.103239 0.396764 4.20377 220 194 77
-0.435767 0.861768 4.02416 154 118 56
0.167811 -0.000772339 4.61013 198 210 224
-1.09076 0.25178 4.7983 184 184 188
-1.53909 0.770862 5.25894 141 108 63
-0.156045 0.829703 4.25032 140 92 2
0.00892112 -0.229202 4.62406 174 156 172
-0.23451 0.161653 4.24474 118 83 40
-0.0904243 0.253939 4.18496 191 204 212
-0.244349 0.542249 4.20623 174 181 136
-0.305846 0.639433 4.36679 164 105 0
-0.709876 0.828257 4.38103 136 97 39
-0.589146 0.906181 4.24488 136 100 41
0.167069 0.883044 3.97104 140 104 63
-0.916023 -0.171927 4.48169 191 194 202
-0.65732 0.0273521 4.89805 188 189 189
-0.262176 0.241678 4.24803 165 154 120
-0.128912 0.250454 4.1797 206 216 204
-0.366832 0.377859 4.12093 164 57 54
-0.283575 0.545436 4.19915 127 114 48
-0.794733 0.618864 4.79853 142 100 25
-1.32092 0.654862 4.9002 156 136 118
-1.3373 0.664294 4.95363 154 130 114
-1.24036 0.68186 4.8471 147 108 57
-0.255233 0.641927 4.23159 184 134 0
0.0432409 0.675626 4.33227 146 104 40
-1.13209 0.696882 4.76365 136 96 50
0.129272 0.71714 4.17118 146 106 68
0.0437701 0.835643 3.99119 137 96 51
0.140608 0.876786 3.95211 141 102 57
0.0269154 0.861587 3.91477 139 98 57
-0.210908 0.248494 4.19075 204 209 190
-0.302931 0.361866 4.07425 183 46 48
-0.234622 0.551753 4.23927 185 192 146
-0.306234 0.635627 4.36814 166 115 0
-0.90093 0.682536 4.71493 139 96 42
-0.921214 0.688685 4.67463 139 98 42
-1.11102 0.737903 4.49531 136 95 48
-0.864333 0.743969 4.3866 141 101 39
-0.84524 0.814001 4.68132 142 103 39
-0.981803 0.752549 4.41897 146 108 52
-0.838028 0.760437 4.41243 144 103 42
-0.934615 0.749395 4.37411 139 98 39
-0.769262 0.75679 4.29449 146 106 42
-1.0067 0.778708 4.31922 138 98 48
-0.765234 0.871475 4.46535 142 104 41
-0.368331 0.937761 4.24955 144 104 42
-0.455155 0.00516411 4.61259 189 193 200
-0.302589 0.733327 4.27722 136 90 13
0.307899 0.775098 3.98615 147 115 66
0.342225 0.847281 3.78654 144 108 62
-0.118178 0.867166 3.90647 141 98 24
0.108474 0.840796 3.76715 147 111 61
-0.670789 0.870766 3.974 142 102 34
0.106067 0.852373 3.81132 144 106 52
-0.0987225 0.887592 3.94044 144 102 29
-0.315158 -0.314183 4.4236 193 203 214
-0.134404 0.220925 4.19495 220 229 220
-0.291834 0.818862 4.13461 142 101 34
-0.6375 0.822105 4.24546 138 100 43
0.0243613 0.71874 4.2333 150 108 54
-0.437408 0.925997 4.1833 146 106 41
-0.165531 0.923707 4.03865 145 102 35
0.0310801 0.876007 3.86435 141 102 60
0.109426 0.854594 3.75602 147 111 66
-1.52056 0.672371 4.92416 168 168 172
0.101841 0.788484 3.97218 142 103 55
0.0748355 0.881802 3.89038 143 102 58
-0.317268 0.390782 4.06454 184 14 14
-0.715803 0.627797 4.96987 151 122 76
-0.706421 0.915311 4.14231 142 102 43
-0.119123 -0.261273 4.51502 181 192 199
-0.136272 0.439076 4.20895 226 192 0
-0.0608621 0.477336 4.25989 243 216 74
-0.0768405 0.485059 4.28769 238 185 68
0.410647 0.539285 4.74648 150 118 82
1.20675 0.534697 4.64088 138 127 114
0.132247 0.585398 4.60079 140 110 74
1.14259 0.563916 4.38485 138 126 108
-1.56713 0.697639 5.02518 169 166 172
-0.227924 0.617498 4.2387 159 116 1
0.260748 0.682674 4.32714 145 111 67
0.101783 0.690879 4.25917 157 123 71
0.268614 0.744606 4.02757 145 110 66
-1.28784 0.918821 4.48155 138 102 57
0.425133 0.803317 3.97624 146 111 61
0.0923979 0.797715 3.88106 155 124 70
-1.01015 0.87582 4.06107 143 107 46
-0.842783 0.898729 4.04971 138 100 37
0.0734501 0.819956 3.7507 144 102 52
-0.997615 0.905103 3.97433 138 100 45
0.0496507 0.89684 3.99046 138 96 40
-0.836363 0.917176 3.96631 140 102 45
-0.814052 0.940635 4.06278 140 99 41
-0.133215 0.938963 4.10465 138 94 20
-0.215974 -0.0738695 4.2108 170 33 18
-0.213997 -0.0266136 4.21521 186 74 46
-0.13692 0.904033 4.10195 136 88 14
-0.0432173 -0.325475 4.51008 195 208 218
-0.54364 0.11369 4.64419 184 184 182
0.350348 0.240522 4.54353 196 206 220
-0.315697 0.724572 4.43812 138 92 23
-0.00234809 0.906757 3.97704 139 97 37
-0.716432 -0.198189 4.76616 188 190 198
0.462289 0.534608 4.83069 152 118 77
1.17698 0.53177 4.5784 144 132 118
-0.221634 0.574141 4.24507 187 164 0
0.285577 0.633558 4.58985 148 112 67
-1.22912 0.919943 4.39239 134 95 40
-0.215148 -0.212268 4.24957 203 170 176
-0.240115 -0.185628 4.24056 181 116 117
-0.100581 -0.0498441 4.60702 177 186 194
-0.0960335 -0.0212917 4.58025 180 188 195
-0.0898147 0.051412 4.60733 180 188 198
-0.0871561 0.087732 4.61848 178 186 194
-0.139704 0.146793 4.19934 182 136 142
-0.0829325 0.131338 4.62387 186 192 200
-0.28031 0.243022 4.1875 182 184 186
-0.21604 0.237668 4.24685 213 216 192
-0.0541724 0.30824 4.3151 186 179 143
-0.264517 0.329636 4.13059 140 52 62
-0.0731851 0.323014 4.23356 200 210 178
-0.28048 0.383203 4.08407 213 65 77
-0.0963766 0.382587 4.20885 202 212 206
-0.258595 0.392782 4.09886 180 112 139
-0.211331 0.391579 4.10508 147 114 93
-0.165431 0.428416 4.19883 208 170 3
-0.300768 0.456565 4.18038 130 128 81
1.11636 0.441301 4.69797 159 164 167
1.13224 0.448593 4.7263 160 156 155
0.578163 0.495422 4.69249 169 158 140
0.463671 0.510458 4.78311 160 141 120
0.143904 0.538454 4.73689 142 126 120
-0.0411372 0.52672 4.23511 249 138 58
-0.310223 0.560066 4.25467 137 99 20
-0.200119 0.559621 4.21671 168 141 43
-0.119564 0.563216 4.19132 200 166 4
-0.234416 0.606933 4.24863 174 152 70
-0.268092 0.61058 4.2184 142 142 92
-0.234846 0.640712 4.29162 178 132 4
0.109365 0.650684 4.39417 146 106 66
-0.00522244 0.643398 4.2679 156 120 4
0.151718 0.660683 4.41861 140 103 64
0.0554253 0.668302 4.35325 146 102 31
0.228229 0.662232 4.33584 146 112 68
-0.301436 0.699764 4.36334 132 86 14
0.0356732 0.684972 4.31193 116 69 4
0.153423 0.680673 4.32402 142 102 58
0.188594 0.718322 4.17147 138 104 63
0.159897 0.7202 4.15015 140 100 64
0.0215381 0.73776 4.13357 138 92 21
0.0325807 0.773631 4.03463 136 90 28
0.406922 0.748883 3.97404 143 106 59
0.0924813 0.775763 3.98828 142 102 39
0.317925 0.805493 4.11841 142 107 60
-1.06086 0.890518 4.18533 136 98 51
0.0412104 0.788282 3.94036 138 94 31
0.402862 0.762387 3.92214 142 106 59
-0.874015 0.890204 4.08963 144 105 58
-0.922101 0.887825 3.89988 138 99 52
-0.0979656 0.935853 4.19793 137 92 19
-0.111639 -0.188508 4.53244 184 192 196
-0.301605 0.073313 4.15888 186 187 194
-0.205563 0.108525 4.20597 200 80 38
-0.181729 0.174971 4.19459 231 232 217
-0.237531 0.251604 4.13545 208 211 187
-0.0614844 0.332564 4.24958 224 204 0
-0.0762857 0.360414 4.2316 223 208 75
-0.236419 0.399163 4.15251 158 30 38
-0.296869 0.418782 4.1118 146 96 84
-0.264406 0.480061 4.16606 170 209 200
0.401875 0.516409 4.7629 159 142 130
0.20284 0.564925 4.71464 139 105 79
0.19784 0.620998 4.43108 145 110 73
-0.254093 0.620551 4.25367 142 104 6
-0.25131 0.639719 4.2747 176 127 3
0.0368684 0.718393 4.22534 149 103 26
0.308975 0.807302 4.12957 144 106 62
-0.139699 -0.531797 4.42467 180 188 188
0.862895 -0.499092 4.40112 175 202 240
-0.125644 -0.35183 4.48709 181 190 194
-0.120741 -0.323107 4.48227 181 190 194
-0.120634 -0.302806 4.49621 182 190 194
-0.237975 -0.188331 4.23756 205 149 148
-0.194738 -0.182561 4.23049 200 171 183
-0.142212 -0.0266877 4.24518 140 74 93
-0.0963343 -0.0482096 4.56586 176 184 190
-0.20249 0.116667 4.19394 187 52 20
-0.166442 0.154542 4.19576 220 214 196
-0.199922 0.218625 4.19984 123 116 104
-0.211306 0.235936 4.26556 206 212 197
-0.275926 0.247288 4.18058 167 166 154
-0.235802 0.241657 4.25361 229 232 202
-0.255281 0.269201 4.21216 158 150 130
-0.134652 0.267854 4.19084 174 194 214
-0.261917 0.318673 4.16967 168 90 99
-0.361108 0.378109 4.12233 150 78 72
-0.219233 0.370773 4.12001 164 100 127
-0.219059 0.375268 4.12135 177 121 144
-0.218704 0.394152 4.13694 124 78 59
-0.0312768 0.394857 4.2614 240 213 115
-0.264863 0.440306 4.20341 175 171 116
-0.139729 0.475641 4.22237 156 122 37
-0.0158064 0.470188 4.35858 234 196 7
0.00324258 0.509507 4.27766 230 196 31
0.0253585 0.523974 4.37703 208 172 46
0.097744 0.541116 4.6992 147 134 134
0.297064 0.526068 4.74062 153 136 128
0.365463 0.52103 4.76166 166 150 142
0.448787 0.514277 4.77203 166 149 135
0.454747 0.511859 4.73693 160 139 121
0.659389 0.492241 4.72936 162 146 130
0.746528 0.491138 4.81916 163 146 128
-0.0537285 0.537375 4.2703 197 118 9
0.00863071 0.537065 4.2635 241 218 66
-0.127357 0.556949 4.21317 60 11 1
-0.122531 0.560253 4.20405 144 104 17
0.107057 0.586245 4.57379 135 100 75
0.1079 0.597132 4.57729 143 112 78
-0.269025 0.616177 4.2234 146 124 56
-0.26495 0.616752 4.22654 154 134 68
0.0850789 0.630336 4.45967 140 104 77
-0.00753607 0.639188 4.25257 172 137 10
0.110994 0.650355 4.41608 144 104 68
0.190368 0.642496 4.41658 138 100 64
0.0554132 0.665786 4.39538 136 93 21
0.231932 0.664343 4.43471 142 105 67
0.210965 0.673888 4.52287 138 102 67
0.0462839 0.676085 4.4205 120 74 4
0.20616 0.695271 4.49925 143 108 63
0.0210934 0.692971 4.32226 97 52 8
0.173629 0.681501 4.35073 138 101 62
0.201071 0.680304 4.34026 142 108 66
-0.939506 0.809468 4.30221 138 102 66
0.193765 0.693356 4.23503 141 105 65
0.168004 0.699039 4.24396 137 100 62
0.899553 0.629053 4.28009 136 104 64
0.164592 0.701346 4.20347 139 104 64
0.0980464 0.721587 4.20691 150 114 58
0.206128 0.749438 4.28058 140 104 60
1.14751 0.644078 4.13066 126 107 84
-0.10736 0.796113 4.10826 141 96 6
0.171103 0.761166 4.05904 140 104 52
0.286689 0.775872 4.12727 144 112 62
0.163805 0.771685 4.00833 138 100 54
0.126546 0.789237 4.07185 140 101 54
0.0947168 0.787478 3.99116 144 101 45
0.396411 0.807895 4.09773 144 107 58
0.148724 0.816863 3.88562 146 106 55
0.178287 0.810429 3.86747 136 97 51
0.530873 0.532792 4.42618 154 120 76
-0.201506 -0.0564377 4.39051 186 140 148
-0.251154 0.165566 4.28959 161 125 123
-0.26953 0.240946 4.17399 167 160 120
-0.260297 0.244645 4.19069 174 170 132
-0.290558 0.309496 4.15941 153 97 73
-0.248428 0.327827 4.11659 180 112 113
-0.273216 0.38024 4.05957 212 134 163
1.2618 0.490939 4.94089 163 160 158
-0.00475223 0.409646 4.31325 212 180 28
-0.363659 0.404619 4.09566 137 73 4
-0.343611 0.410154 4.07151 140 85 16
-0.208909 0.542655 4.20622 146 66 0
-0.18195 0.556675 4.20057 48 11 8
0.192393 0.689715 4.32627 146 110 68
-0.993325 0.702324 4.63855 142 98 56
-1.30476 0.670092 4.85916 138 100 68
-1.38881 0.669901 4.96004 150 132 116
-1.47115 0.672698 4.94936 164 145 138
-1.36375 0.744746 4.93982 138 102 56
-0.115855 -0.303382 4.53142 188 197 205
-0.216841 -0.130155 4.22556 166 75 50
-0.215413 -0.125799 4.2264 205 110 76
-0.209861 0.0296204 4.20727 166 24 21
-0.202062 0.102321 4.22677 166 12 14
-0.241507 0.209284 4.20967 199 188 133
-0.13629 0.224655 4.17564 230 236 222
1.25478 0.483958 4.89745 164 168 172
-0.238762 0.272667 4.20284 150 134 98
-0.234619 0.274449 4.20151 144 128 96
-0.232775 0.274688 4.18883 148 133 101
-0.0735014 0.303867 4.21166 198 208 218
-0.271111 0.312848 4.2873 177 165 126
-0.260312 0.328467 4.26976 160 92 66
-0.258303 0.339045 4.36408 186 156 113
-0.0129798 0.416834 4.26523 228 198 22
0.00643633 0.42314 4.2952 192 187 168
-0.0430338 0.423777 4.20485 226 188 1
-0.376888 0.384075 4.14581 202 165 168
-0.281958 0.400985 4.14289 192 23 43
-0.375134 0.390053 4.14937 206 170 172
0.00312467 0.470998 4.28517 235 195 10
-0.00401981 0.470723 4.2576 234 194 4
-0.360066 0.414843 4.14602 174 126 52
-0.0640171 0.477979 4.20519 228 168 28
-0.312031 0.423583 4.10316 144 78 52
-0.297956 0.465035 4.21158 138 106 10
0.0386438 0.550366 4.29922 152 116 47
0.0391248 0.555881 4.30124 154 118 44
-0.325703 0.505139 4.33806 152 110 20
-0.141623 0.520981 4.25758 54 22 36
-0.297018 0.485943 4.20084 82 58 10
-0.323945 0.520484 4.35146 150 108 15
-0.300406 0.52724 4.35315 180 136 0
-0.326757 0.527527 4.33633 152 108 8
-0.311795 0.559196 4.38045 156 107 4
-0.314456 0.561305 4.36599 161 111 6
-0.724348 0.609923 4.86651 147 110 64
-0.736736 0.658842 5.07925 158 127 84
-0.194519 0.5616 4.20928 162 122 28
0.0428596 0.649814 4.33136 150 111 54
0.0491606 0.659695 4.34639 150 112 52
0.182998 0.704694 4.29647 146 106 59
0.0522123 0.69687 4.3576 137 96 17
0.0442187 0.697819 4.33978 125 82 18
-0.967969 0.633527 4.78623 140 95 38
0.0365347 0.707028 4.33962 172 130 36
-0.969493 0.641808 4.72869 134 89 36
0.0260779 0.722593 4.34515 162 116 29
-0.911297 0.658806 4.70246 140 94 40
-0.315636 0.692349 4.39865 135 84 18
-0.935787 0.656242 4.67089 138 90 38
-0.97216 0.659739 4.70314 138 96 42
0.162975 0.744806 4.13439 144 105 60
0.15508 0.755681 4.10031 146 107 64
-0.994378 0.689626 4.60017 140 94 48
-0.993496 0.705564 4.6235 142 96 54
0.257337 0.791735 4.01665 146 110 66
-0.904592 0.726846 4.45885 136 94 40
0.22281 0.802216 3.86895 142 106 62
0.0928618 0.805934 3.90206 150 116 70
0.277965 0.888641 4.00097 139 100 59
0.342349 0.881672 3.94178 144 108 67
-0.983264 0.750393 4.35207 136 92 46
-1.04972 0.849133 4.58975 134 88 50
0.0455836 0.825459 3.85939 139 97 45
-1.13008 0.832366 4.58257 140 96 52
-0.936144 0.787555 4.32818 136 92 42
-0.835841 0.883022 4.52093 140 98 42
-0.876992 0.831556 4.38152 138 94 38
-1.28344 0.905946 4.83621 138 93 54
0.270352 0.893167 3.87149 140 100 59
0.042403 0.830405 3.81617 140 98 54
-0.839397 0.858509 4.35536 137 91 38
-0.811028 0.823023 4.25053 140 98 36
-0.865927 0.852932 4.32698 138 92 42
-0.00297666 0.969303 4.09076 142 102 46
-0.995754 0.894293 4.46446 138 95 48
-0.10282 -0.393399 4.46573 195 206 216
0.230902 0.746055 4.2488 150 110 66
-0.220797 -0.134991 4.22395 189 88 50
-0.215549 0.125654 4.24082 168 16 16
-0.205163 0.124817 4.22389 183 34 28
-0.240461 0.321233 4.32059 162 144 95
-0.0105109 0.395616 4.30852 218 192 51
-0.0982624 0.496253 4.26498 224 172 18
-0.251994 0.474268 4.18393 160 152 111
0.252821 0.670784 4.61697 145 105 62
0.100302 0.639558 4.36713 148 106 63
0.130978 0.747932 4.12188 145 102 56
-0.991532 0.753292 4.51708 146 106 55
-0.012411 0.791346 4.07828 141 96 32
0.140847 0.785039 3.99931 143 102 52
0.100927 0.799369 3.94657 144 106 56
-0.832749 0.867058 4.20781 138 94 41
