ply
format ascii 1.0
element vertex 1349
property float x
property float y
property float z
property uchar red
property uchar green
property uchar blue
end_header
-5.71986 2.47565 8.07597 130 64 20
-6.31153 2.43749 7.7954 144 41 28
-5.97138 2.50625 8.02618 152 102 91
-6.2204 2.61422 7.80574 166 81 42
2.19825 -2.41278 7.40754 154 133 110
2.29153 -2.33307 7.3375 108 13 4
2.10443 -2.01792 7.66569 92 84 68
-4.60261 -2.04847 8.69578 60 44 13
2.0584 -2.06545 8.37151 116 106 61
-4.35276 -1.88996 9.11787 48 28 10
-2.55803 -1.93287 9.14378 66 28 14
-5.08102 -1.79572 8.95012 140 92 63
-4.91588 -1.75231 8.84511 36 15 6
-1.5989 -1.53259 9.84311 110 61 46
-2.41007 -0.637096 9.1338 132 85 58
-2.67806 -0.629675 9.37238 165 116 84
-3.24936 -0.338858 7.93644 108 72 36
-2.54074 -0.33771 8.88017 72 26 8
-3.56428 -0.237768 8.16945 220 168 124
-2.8635 -0.00811356 8.46685 182 126 108
-3.42634 0.0664971 8.58728 100 52 44
-2.8986 0.130717 8.93353 149 92 72
-5.65627 0.314749 6.58846 161 128 130
-3.89498 0.382609 9.05693 102 54 33
-5.06109 0.490331 7.76071 116 34 6
-5.53397 0.553891 6.93888 154 118 98
-4.6899 0.558087 7.56628 128 25 22
-0.986005 1.20148 7.48771 26 9 5
-0.778075 1.26162 7.49722 28 14 12
-0.956098 1.38633 7.50003 100 23 20
-5.79384 1.36558 7.59708 92 87 96
-1.22743 1.91931 8.09862 159 133 115
0.590199 1.97095 8.1066 150 134 122
-1.0014 1.98327 7.57476 153 51 46
-0.829668 2.02794 7.27298 53 34 26
-5.51633 2.3372 8.24648 164 124 112
-5.93372 2.28518 7.88004 154 131 117
-5.9562 2.32294 7.76252 112 25 8
-0.855041 2.59331 8.19836 108 78 73
-0.712684 2.5252 7.82616 95 54 55
-0.384692 2.53724 7.77989 120 66 66
-1.10114 2.62975 8.15786 104 68 59
-1.02425 2.7161 7.89055 80 48 36
-6.26361 2.6518 7.95962 184 109 60
-5.96133 3.17133 7.71308 136 21 22
-2.50852 -2.14699 9.48724 114 68 51
-4.36312 -1.91686 9.20793 60 38 14
-5.16941 -1.62502 9.01988 44 17 8
-5.42932 -1.0599 9.39433 125 118 72
-5.51279 -0.562845 9.56323 144 122 95
-3.27562 -0.372655 8.2238 104 68 31
-3.58422 -0.267208 8.3456 196 141 102
-5.16725 -0.129465 9.37155 60 23 12
-5.25611 -0.0507293 9.41514 156 144 124
-4.69683 0.145082 9.38655 58 18 11
-4.89176 0.408122 7.59907 114 45 32
-5.0458 0.380279 8.70888 110 48 34
-3.88792 0.381132 8.77948 102 53 32
-5.57607 0.522352 7.08521 162 146 124
-4.7757 0.545067 8.03252 131 20 20
-4.67794 0.619401 7.49793 128 24 20
-4.77929 0.691274 8.03558 130 16 15
-4.81975 0.763814 8.058 134 18 19
-4.86702 0.826177 7.7681 140 18 18
-5.35017 1.08572 7.3926 164 144 126
-0.997366 1.37131 10.5127 160 114 90
-0.790664 1.24556 7.50469 25 13 10
-1.00143 1.63496 9.45495 160 130 114
-5.74969 1.42325 7.26882 20 16 34
-0.537375 1.57171 6.98068 58 10 4
-1.19096 1.71854 8.45777 163 136 122
0.51493 1.72146 7.6041 94 72 56
-1.28775 1.87246 7.75076 158 134 116
-0.990483 1.85101 7.4324 159 32 29
-1.01553 1.9136 7.37168 168 130 124
-5.92161 2.10496 7.86899 158 134 122
-0.841997 2.49654 7.66163 106 70 70
-0.386381 2.60913 8.14802 58 16 14
-1.13948 2.56091 7.87726 82 46 36
-5.99367 2.56648 7.76756 144 78 34
-5.97048 3.15665 7.76143 139 21 22
4.6152 -1.27968 8.57389 122 94 78
-5.8982 -0.120184 6.63804 138 120 106
4.0383 -0.033289 7.91035 84 37 13
-5.63767 0.310627 6.6604 142 90 88
4.45683 1.66512 8.28317 40 22 14
-5.9303 2.05555 7.68676 162 127 110
-0.682976 2.56695 8.10896 149 104 104
-6.31296 2.41416 7.75323 140 57 33
2.26831 -1.91651 7.02738 152 119 101
2.83067 -1.49536 6.74705 122 97 84
-2.38695 -1.50969 9.88669 102 68 38
-1.61678 -1.45082 9.43307 132 82 64
-5.35368 -1.00662 9.32079 140 118 94
-2.90966 0.100557 8.57583 158 103 84
-5.30063 0.562644 7.54143 167 141 112
3.2289 1.22773 8.06999 162 116 88
-5.35734 1.05828 7.34051 165 128 103
4.3769 1.68474 8.21436 162 135 124
2.89081 2.07731 8.96033 198 174 168
-6.2036 2.42644 7.68392 167 74 50
-2.4755 -2.15291 9.37947 170 114 92
-4.93301 -1.81412 8.54272 108 71 48
-5.68384 0.484001 6.64644 153 122 121
3.0964 1.97578 8.451 38 12 10
2.08906 -2.17257 8.28091 98 89 65
-4.46697 -1.88246 9.21263 152 104 80
-5.90933 -0.134658 6.67398 156 141 128
-2.74611 -0.0531416 8.51448 84 32 17
-5.28068 -0.106793 9.38284 94 54 30
-5.70981 0.299081 6.67645 124 50 55
0.674016 1.98245 8.00064 104 80 71
-5.87673 2.0384 7.79887 164 122 108
-5.84283 2.23469 7.92769 89 14 3
-6.32787 2.43087 7.80522 142 56 35
3.16575 -2.04185 6.73662 165 140 131
-2.50078 -1.97028 9.28411 70 23 6
2.42946 -0.267721 9.04598 98 56 31
3.7046 0.063409 7.81414 54 30 26
-5.65435 0.302161 6.48817 118 36 40
3.33502 0.480255 8.12382 184 157 138
-5.53896 0.616763 7.34764 76 18 2
2.51003 1.55844 8.91731 158 132 126
-5.01808 1.95376 9.74683 160 110 85
-6.21032 2.41669 7.69009 165 81 47
-4.49801 -0.921066 9.18551 128 74 48
-5.00999 -0.373131 9.26633 102 56 40
-3.60634 0.0389461 8.24127 109 53 38
-5.84796 1.25969 7.21774 99 91 98
-5.76995 1.31091 7.11382 18 14 29
-5.68932 1.40236 7.20323 22 18 32
2.99492 1.72852 8.46412 183 152 145
-0.947816 1.98831 7.79052 157 116 107
-6.02305 1.97477 7.2932 57 2 1
-6.04599 2.06282 7.41499 133 66 33
-6.18493 2.67749 7.82812 182 109 45
2.01859 -2.49611 8.04426 138 115 92
-4.73038 -1.42987 8.74776 160 102 80
-4.63379 -0.933214 9.15192 198 138 106
3.30204 -0.88058 8.52026 154 129 116
3.25914 -0.868516 8.61062 112 93 73
-1.51073 -0.921538 9.43847 148 100 76
-5.53833 0.616361 7.34612 80 18 2
-1.18606 1.58482 7.94885 148 106 91
-0.650347 1.85916 7.37934 134 118 110
-5.53916 2.21321 8.15294 110 35 16
2.16898 -1.96998 7.05123 120 72 46
-5.24659 -0.809777 9.07944 128 78 57
2.3175 1.31079 9.23707 136 14 13
3.26238 1.90507 8.36171 190 146 88
-0.115498 1.82356 7.28385 129 51 46
-2.34336 -1.46512 9.79196 84 38 14
3.8069 -0.206133 7.88668 116 68 52
-0.149489 2.11124 7.34812 70 50 43
-5.8647 2.05004 7.76994 160 118 100
-6.05825 2.06467 7.44057 144 81 42
-1.92754 -0.238981 9.52815 110 68 50
3.34542 0.530695 8.1798 184 156 138
3.29474 0.788761 8.62339 94 59 38
3.06487 1.66139 8.39053 146 107 92
2.95585 -1.94266 6.41666 253 238 230
3.59821 -0.369392 7.69354 79 42 26
-2.83409 0.0674184 8.54409 110 51 33
-2.90896 0.0927101 8.60461 159 103 84
-5.58771 0.572009 7.32519 121 82 67
4.07195 1.92138 8.31845 46 28 23
2.9281 -1.45795 6.68643 112 86 76
3.46857 0.0933141 7.81343 152 120 106
3.43514 0.941195 8.55023 173 134 110
2.74361 1.30624 8.43019 180 146 134
3.90599 0.0441978 7.81067 160 126 107
-0.771047 1.21817 7.34262 42 14 6
4.02941 1.99258 8.31132 178 152 142
3.98845 2.05475 8.36999 152 124 112
0.0106413 2.11602 7.61803 142 120 113
-5.3608 -0.41761 9.39795 84 42 16
-5.62626 0.52403 7.19619 129 82 64
2.92531 1.32692 8.3915 190 166 158
3.96171 1.51103 8.11021 148 117 106
-4.93321 -0.0104484 8.59304 142 110 80
2.27708 0.407622 9.68561 140 85 57
-0.274598 1.9112 7.50225 146 126 120
0.15231 2.42968 7.69714 158 29 26
-0.861931 2.55277 8.12826 138 50 42
3.22644 -1.95032 6.50891 158 137 128
2.91329 -1.47854 6.62252 147 123 115
-3.30194 0.0988809 8.3208 118 71 54
0.645892 1.73779 7.96323 95 74 60
0.513069 1.77586 7.79499 126 110 96
0.302183 1.76436 7.55878 72 58 45
4.06628 1.96261 8.33191 102 85 78
-5.95976 2.29635 7.81216 95 20 8
2.99086 0.603813 8.43321 29 16 11
-6.23759 0.759359 6.66314 177 114 99
-5.8433 1.4045 7.15344 103 98 108
3.07329 1.83483 8.35645 131 48 50
-0.739409 2.07058 7.34641 51 30 18
-5.07402 -0.10216 9.50945 134 87 66
-4.8669 0.0942967 9.21618 35 7 3
-6.09402 1.82537 7.19631 47 25 32
-5.93424 2.08938 7.68966 151 112 90
-6.2067 2.10208 7.3007 122 17 14
-5.99142 2.42961 8.22311 106 58 46
-6.2977 2.41639 7.72924 140 56 30
2.16171 1.15531 9.21461 168 139 126
-3.3645 1.4235 9.64534 138 91 68
-5.81012 1.24459 7.13158 116 108 112
3.0959 1.76405 8.69237 170 127 121
-1.44344 1.92334 8.19937 148 120 109
-5.36346 1.80131 7.69453 118 24 16
-5.77323 1.7801 7.30974 24 10 22
-6.08438 1.83344 7.20121 44 24 32
-5.96669 2.37081 8.21541 144 106 94
-5.94028 3.1694 7.65875 130 33 36
-4.02984 -0.98789 9.59005 94 55 22
3.50083 1.3491 8.1987 138 94 69
-5.8919 1.36209 6.90888 52 48 54
-3.27223 1.73967 9.77714 47 15 8
-0.662929 1.59531 7.12555 72 25 16
-1.524 1.79852 8.54992 124 92 79
-5.91294 2.05728 7.65608 161 118 102
-5.90685 2.16508 8.00403 148 124 108
-5.94071 2.43109 8.09931 106 48 38
-0.927133 2.81536 8.17363 97 66 58
-4.72282 -1.13869 8.75199 113 60 42
-4.25408 -1.21684 9.27802 64 24 12
-5.25932 -0.531939 9.18388 165 108 77
-3.57887 -0.24135 8.32954 216 160 118
-3.42595 0.111255 8.33222 80 33 21
-5.90695 1.31002 6.97457 70 64 72
-5.82905 1.38403 7.11481 86 81 91
-1.46045 1.8536 8.18201 94 66 58
-6.2112 2.41714 7.71245 172 106 56
-6.05785 2.60634 8.02313 135 64 28
-5.20827 2.88322 8.07927 121 23 18
-2.15273 -2.17257 9.11782 162 106 88
-1.28906 -1.55871 9.45695 78 64 24
-5.0353 -0.37136 9.30351 102 55 38
-4.23336 -0.323892 8.73306 118 72 46
-3.39597 0.0795697 9.0188 119 72 56
-5.80524 1.76009 7.40206 20 12 20
-6.00518 2.52804 8.14543 152 112 96
-6.01969 2.56712 7.86744 135 62 27
-5.24656 -0.662316 9.03653 55 24 14
-3.69329 -0.0128507 8.29484 171 110 90
2.81183 1.46042 8.50631 149 110 94
3.05635 2.01481 8.24708 175 148 140
2.21987 -2.28253 7.24449 98 24 8
-2.64697 -2.15118 9.83885 132 117 82
-4.27435 -1.81748 9.07796 86 56 18
-2.63388 -1.96098 9.83997 62 35 8
-2.40199 -1.54166 9.68112 160 136 94
-1.16613 -1.03185 9.46742 68 40 10
3.30708 -0.854401 8.64749 78 68 50
-4.047 -0.272006 8.9464 122 81 54
-3.25096 0.169682 8.37892 68 22 8
-2.92331 0.178331 8.64023 152 97 78
-3.28657 0.208749 8.4344 137 92 77
-5.66848 0.409838 6.71433 66 25 26
-5.66883 0.46107 6.67428 146 120 119
-6.3124 0.51504 6.6771 140 70 58
3.34698 1.7226 9.55982 216 195 187
-5.83296 1.40012 7.13229 104 100 112
4.08238 1.84355 8.14992 216 189 164
-1.21606 1.71816 7.72656 218 196 186
3.03903 1.95158 8.36561 41 13 14
0.512228 1.85399 7.87854 133 120 110
3.21999 2.17715 9.89708 216 193 184
-1.48666 1.87348 8.07951 91 64 56
0.478741 1.92842 7.99657 86 70 62
-0.352178 1.87444 7.36644 118 80 67
-1.08105 2.47991 8.01822 84 20 12
-5.96968 2.48757 7.9803 148 98 88
-5.88643 2.53167 7.87465 131 79 67
-0.397949 2.80966 8.21114 78 49 48
1.90586 -2.46074 7.86904 132 102 74
-2.58122 -2.40132 9.90638 121 112 72
-4.329 -1.82033 9.13558 130 98 72
-2.6312 -1.96989 9.82062 56 28 10
-4.24216 -1.22457 9.29397 49 11 0
-1.40481 -0.314436 9.96413 100 68 40
-3.37181 0.232191 8.37378 101 49 36
-5.65541 0.300781 6.6583 144 86 88
-6.21225 0.491915 6.54376 172 94 90
-1.17081 1.6223 7.66256 148 100 92
4.03964 1.82976 8.08415 200 173 148
2.03763 -2.51448 8.31859 108 80 42
2.01201 -2.47605 8.19096 102 66 35
2.06498 -2.47254 8.33878 161 142 106
2.14684 -2.0884 8.5522 133 126 78
-2.27059 -2.04018 9.44116 83 32 12
-4.29838 -1.85543 9.15542 66 42 14
3.09142 -0.945378 9.06554 62 40 6
-1.38334 -0.394943 9.76242 106 82 58
-3.29056 0.168438 8.42505 72 26 14
-3.00102 0.189815 9.06956 152 126 103
-5.65362 0.302228 6.64669 134 65 68
2.83947 1.48378 8.46346 130 92 76
2.89545 1.79828 8.24758 140 68 68
0.670864 1.75075 7.83256 106 92 78
0.344202 1.74217 7.71936 143 121 108
-1.37226 1.88372 8.93793 130 104 92
-1.09362 1.94849 8.70121 116 89 76
-1.16523 1.8715 7.87087 136 52 44
4.37471 2.11766 8.53444 164 139 126
-5.88027 2.51125 7.84945 136 96 84
3.06032 -3.51053 9.42344 112 97 60
1.99529 -2.94644 8.31091 128 110 63
2.25598 -2.30301 7.26698 105 14 6
2.09813 -2.58998 8.49403 108 91 46
2.10447 -2.4933 8.42729 161 142 106
2.09796 -2.02972 8.19531 108 78 48
-2.63442 -2.26977 9.87627 148 140 96
-2.63697 -1.9996 9.91512 53 32 9
-2.9122 0.101659 8.60016 146 92 74
-3.00908 0.193616 9.20205 153 130 107
-3.06805 0.341026 10.2196 140 128 100
-0.897197 1.00231 8.54112 135 102 71
-5.34556 1.05843 7.31358 164 126 102
-0.882081 1.33398 9.83922 152 102 79
-2.11712 1.80786 9.93678 194 140 111
-1.3265 1.91767 9.14759 129 103 92
-0.970056 1.93952 7.30726 185 167 160
-0.0450904 2.07635 7.33714 202 185 180
-1.0675 2.46602 8.13519 153 91 78
-1.11619 2.46014 7.79494 64 20 12
-5.83083 2.45434 7.65561 140 106 92
-6.18056 2.43537 7.38351 152 85 68
1.91694 -2.90962 8.16802 148 136 88
1.98686 -2.5329 8.27267 116 102 54
2.03251 -2.50965 8.26743 100 64 31
-4.38674 -1.69107 8.59187 168 114 88
-5.09572 -1.28319 8.99974 113 72 57
-2.5621 -1.2717 10.1284 122 88 50
-1.08869 -0.692095 10.4602 90 66 38
-3.55869 -0.216404 8.09064 222 166 126
-3.82484 0.0809253 8.41634 192 133 112
-3.36655 0.215428 8.49255 130 78 65
-3.02808 0.20772 9.21829 149 128 103
-0.90947 1.32184 9.74339 154 107 83
-5.83582 1.25329 7.22239 120 112 120
-1.125 1.92106 8.10256 138 50 39
-0.901085 2.01128 7.72239 156 138 130
-0.219181 2.05227 7.48355 122 105 98
-0.0987385 2.09431 7.52601 40 22 12
-5.92247 2.50094 7.92654 146 111 98
-0.627199 2.77297 7.94276 107 76 74
1.97419 -2.01634 8.16121 121 112 66
-4.35881 -1.92758 9.33052 37 24 9
-2.63474 -2.03365 9.91693 52 30 10
-4.3777 -1.67427 8.81154 88 48 34
-4.40563 -1.52294 8.5984 179 120 99
-1.3474 -0.462017 9.36154 100 60 34
-5.89554 -0.161316 6.63108 142 129 118
-5.69715 0.30164 6.59687 124 45 51
-4.99718 0.400916 8.18263 146 101 80
-4.77949 0.720746 8.08793 126 28 22
-1.06453 1.07136 8.37666 149 74 58
-1.11543 1.94054 8.15067 138 52 38
-5.46665 1.86797 7.58034 117 26 11
-1.06649 2.69079 8.01645 90 56 49
-0.624578 2.78685 8.00132 103 72 70
-0.731245 2.77864 7.87074 80 46 42
1.90446 -2.38592 7.46092 118 88 58
-4.83973 -1.76445 8.60957 119 76 56
-4.69147 -1.22606 8.58601 124 67 52
-3.41671 -0.915619 10.6749 108 70 39
-2.78147 -0.154691 9.59559 127 74 60
-0.950542 1.1021 9.02771 152 83 66
-5.85041 1.26642 7.00838 20 15 28
-5.95869 1.32413 7.10304 80 72 81
-5.79279 1.43925 7.4729 20 15 32
-1.46997 1.86239 8.22536 92 66 60
-0.705309 1.82461 7.39791 152 135 132
-1.19022 1.88242 7.76017 146 69 55
-0.632514 2.00072 7.3285 142 122 117
-0.695186 2.02513 7.32241 136 120 114
2.1455 -2.08091 8.5067 100 82 36
-1.16338 -1.21465 9.11655 91 66 33
-4.02063 -0.351692 8.77437 82 39 20
-1.8099 -0.337789 9.99901 94 49 36
-3.55824 0.0290377 8.82207 184 126 104
-4.94273 0.0427644 9.01772 94 43 22
-3.35351 0.145997 8.27785 166 116 102
0.379465 1.69674 7.78991 151 133 116
-5.81881 1.74739 7.46727 22 10 27
-0.788569 2.0208 7.34971 48 29 22
-0.0219815 2.11184 7.47851 135 122 115
-5.82212 2.25069 7.87729 88 6 4
-6.06397 2.3626 8.09893 120 50 26
-5.91296 2.41478 7.83387 134 90 76
-1.1027 2.63859 7.86383 88 55 48
-1.02776 2.67862 7.86248 70 34 26
-5.30269 2.90641 8.36123 126 18 18
3.3743 -3.36833 7.46736 162 141 102
-2.04534 -2.39867 9.17513 89 59 42
2.26736 -1.92789 7.0334 136 102 86
-4.97469 -1.84459 8.6903 117 78 54
2.36071 -1.60599 7.17261 64 32 25
-4.98043 -1.68694 8.63614 162 117 92
2.92903 -1.66956 8.97073 100 58 27
3.0474 -1.15448 9.01662 81 52 20
-1.17168 -1.07207 9.48022 133 110 86
-4.73639 -0.979754 9.15448 68 32 24
-1.07686 -0.788922 9.49727 132 118 88
-5.35419 -0.644034 9.3196 48 16 4
-1.2022 -0.66753 9.52596 98 78 54
-3.54196 -0.272287 8.36115 222 168 130
-5.21223 -0.272409 9.34521 184 126 105
-2.90725 0.0871792 8.53383 160 108 94
-5.00676 0.120209 9.52998 107 75 60
-3.46216 0.154648 8.29061 112 60 46
-0.550592 1.0741 7.54855 148 104 80
3.12214 1.19829 7.80014 164 118 100
3.55439 1.36671 8.05431 170 134 123
3.52942 1.41149 8.05251 114 70 52
-0.127707 1.98723 7.45279 74 61 56
-0.835003 2.04961 7.33326 68 48 43
-5.01148 -1.5847 8.61688 169 120 96
3.7405 -1.16637 8.09695 114 102 88
-1.19483 -1.11133 9.45823 42 18 4
-3.42391 -0.992043 10.5251 153 142 106
-3.42141 0.0680862 8.23614 140 91 79
-0.916151 1.33223 7.33255 77 28 22
3.29319 -3.25194 7.48804 136 116 72
2.41617 -1.84238 6.92127 122 84 66
-1.06658 -0.789689 9.5104 134 119 88
-5.34803 -0.407671 9.4624 66 28 14
-2.88211 -0.00281465 8.50572 178 121 102
2.94745 0.572209 8.59035 72 52 44
4.13016 0.725143 8.41505 118 81 58
2.40577 -1.93794 6.88573 159 128 114
2.30798 -1.9336 7.12034 138 105 92
2.39452 -1.60615 7.15236 35 11 6
-4.96701 -1.67795 8.58686 156 112 86
-5.38501 -1.01601 9.38576 120 110 73
-5.44797 -0.974689 9.40017 154 144 115
-5.04054 -1.72246 8.88658 102 63 42
2.41974 -1.95077 6.92413 147 110 94
-4.75874 -1.13951 9.02667 120 66 50
-1.51014 -0.920148 9.42763 172 125 109
-5.0674 -0.574548 9.25597 106 60 44
2.96319 1.3528 8.43534 172 148 140
-0.279213 1.70396 7.31326 84 73 58
-0.624023 2.60948 8.12965 69 26 28
-0.389457 2.64395 8.14849 49 18 18
-0.398384 2.73377 8.08888 54 24 20
-5.29291 -0.524203 9.33042 177 123 98
-0.541268 0.88019 10.7249 108 87 59
-0.743609 1.91608 7.35319 61 48 46
-0.688756 1.96098 7.41643 76 66 66
-0.0539984 1.99992 7.38341 162 148 142
-0.72371 2.03575 7.3406 69 48 42
-5.19624 -0.302066 9.3918 153 100 80
-0.534253 0.880158 10.7332 108 89 61
-0.864574 2.66983 8.18558 132 105 99
-1.47207 -1.18309 9.31801 145 96 76
-1.52913 -0.938666 9.41356 150 105 86
-4.3383 -1.45941 8.81253 178 120 100
-5.47341 -0.510911 9.31372 136 114 92
-0.363266 2.63128 8.15745 59 15 14
-0.7706 1.90199 7.27564 70 58 54
-0.376059 2.64077 8.17445 57 14 12
-1.84524 -2.35053 9.74471 94 58 41
-3.5819 -0.240148 8.32336 210 154 116
2.0878 -2.0791 8.34414 96 82 44
4.81147 -1.29062 8.71769 107 62 39
3.18573 -0.991263 7.92505 142 120 108
-5.3056 -0.345423 9.34632 46 12 2
-5.12537 0.112483 9.58447 100 67 45
-4.99875 0.56404 7.58887 148 72 34
-0.0972878 1.96415 7.39495 114 100 94
-0.0573614 2.34102 7.54439 62 18 15
-5.20079 2.89083 8.08354 110 35 29
8.68944 -3.78768 14.0688 96 70 54
2.28343 -1.74192 7.27332 114 30 24
2.36194 -1.63539 7.16584 40 4 2
4.29864 1.67803 8.13223 149 116 100
3.17682 1.72158 8.41751 96 96 86
0.189577 1.86255 7.34505 149 114 105
-5.52016 1.88795 7.68451 118 32 9
-0.258288 2.00627 7.27529 143 124 118
2.89875 -1.51871 6.7585 142 118 112
3.09303 -1.4625 8.96685 113 82 41
3.26739 -1.03686 7.65952 151 97 82
-2.5553 -1.2041 9.77845 102 70 32
-3.42028 0.0741599 8.18517 148 96 82
-4.96011 1.79799 9.82317 179 128 104
3.73621 -3.32195 7.39294 158 138 92
3.30393 -3.16521 7.49025 134 86 52
2.10842 -1.97174 8.17489 144 114 91
2.22008 -1.64176 7.5063 152 123 110
2.93788 -1.46296 6.76048 56 36 30
-1.09008 -1.21294 9.40076 88 76 34
-0.293341 1.66166 7.09243 105 80 65
-0.081155 1.95209 7.25256 113 96 92
-0.397342 2.06586 7.4444 154 76 72
2.29987 -1.74341 7.31138 126 44 37
-2.51525 -1.98976 9.41038 67 22 6
-4.40175 -1.84056 8.96185 148 106 82
3.26558 0.500599 8.13178 183 154 133
3.48 1.2743 8.19648 96 54 31
-2.15978 1.87257 10.3925 208 156 116
2.91134 1.83074 8.48158 114 56 58
-3.30978 1.99689 9.72397 75 40 28
2.12525 -2.8525 8.28977 131 100 72
-4.75099 -1.46391 8.9101 168 108 88
-1.81169 -2.03166 9.27295 70 36 24
-2.80898 -0.0717098 8.40942 79 28 16
2.4245 0.988018 8.93349 174 147 140
-2.48112 1.54854 10.1773 186 134 110
-3.08164 1.74978 9.94525 100 65 55
0.466347 1.72325 7.71579 152 136 118
1.23558 -0.667212 1.85086 106 82 72
3.13707 -1.90451 6.3653 79 56 49
3.06383 -1.79789 6.47111 87 64 58
3.08286 -1.71899 6.41026 96 78 72
3.29858 -1.58319 6.59456 90 74 68
3.04452 -1.58994 6.76954 84 64 57
3.30593 -1.53308 6.63419 174 157 154
2.92608 -1.4846 6.72165 145 124 116
2.69182 -0.76679 8.82694 142 92 68
2.42682 -0.51749 9.0487 141 106 82
2.94153 -1.61757 6.48583 164 140 133
2.94215 -0.72331 9.0361 8 14 4
2.74815 -0.544896 8.81131 122 82 54
2.80359 -0.459544 9.00993 98 64 44
3.11361 -1.85898 5.9788 169 139 127
3.05043 -1.87975 6.4859 72 52 45
3.0881 -1.81469 6.17661 74 58 58
3.16318 -1.82983 6.46455 61 48 46
3.40666 -1.45932 6.59088 88 72 66
2.49034 -0.553291 9.1077 157 126 102
3.16401 -0.526825 9.4799 132 137 126
3.09244 -1.80263 6.3288 63 49 47
3.36525 -1.46053 6.56982 117 101 97
3.14379 -1.60947 6.37879 138 122 119
3.00132 -1.9601 6.41836 136 108 100
2.64084 -1.36565 7.35259 95 59 28
2.32497 -1.65764 6.7861 117 28 20
2.00051 -2.47501 7.85223 100 74 42
1.98265 -1.19691 5.86161 145 116 102
3.39393 -0.806315 7.58229 176 101 76
2.31915 -0.809009 8.64794 190 159 140
-4.0259 -0.267362 8.85699 113 74 48
-2.68586 -0.158699 8.71493 116 68 53
-3.67062 -0.0741301 8.42356 84 28 9
-3.68589 -0.0415702 8.33255 168 108 82
-3.37715 0.245133 8.23192 98 48 34
4.30848 1.66919 8.13049 150 120 108
-5.0241 1.96163 9.71438 168 116 89
0.57415 1.85465 7.93092 131 118 110
-1.37068 1.88909 8.14098 104 82 70
-0.330828 1.84363 7.26675 170 150 142
-0.0918886 1.91621 7.36403 159 144 142
-0.790646 2.07935 7.27954 88 66 58
-4.99424 -1.85464 8.76377 110 74 48
2.80301 -1.61629 8.63966 100 57 26
3.24835 -0.843505 8.5279 84 74 54
-3.53719 -0.281729 8.17235 214 158 120
-4.96413 0.154944 9.66169 116 92 74
3.80042 0.824628 8.36127 118 106 89
2.93591 1.59515 8.91016 216 200 196
-5.02888 1.85379 10.1243 182 131 106
-0.719997 1.83519 7.35526 136 122 122
2.39873 -1.30707 6.55071 170 142 130
-5.28653 0.56203 7.50171 167 146 116
0.695494 1.77207 7.89853 104 90 77
2.20503 0.994995 10.092 100 86 63
-0.550415 1.08193 7.54626 152 106 82
2.92683 1.59643 8.83347 240 228 224
-4.89202 1.78646 9.65714 184 134 108
-1.00551 1.92505 7.4997 145 54 46
-2.57449 -2.16584 9.50954 52 24 10
2.48115 0.428253 9.4931 97 62 36
2.28798 -0.783138 8.94296 90 62 36
-1.06961 -0.810859 9.82166 122 100 67
2.2924 0.475207 9.39779 78 50 22
-0.287115 1.01482 8.74988 162 148 128
-0.877994 1.89311 7.60564 180 158 148
2.09076 -2.60393 8.52318 126 110 62
2.75679 -1.41584 8.86922 104 56 24
2.19309 -0.750868 8.66784 68 38 15
3.21537 -0.696378 7.91556 155 124 110
2.31214 -0.648118 8.69378 69 39 22
-3.50319 0.12586 9.18386 134 83 68
3.09859 1.2286 8.02714 98 54 26
2.9447 1.60851 8.93899 199 182 176
-0.89505 1.95535 7.34433 107 96 90
2.28847 -0.776378 8.91473 82 54 28
3.14803 -0.375635 9.65216 154 140 118
-5.09036 0.426354 8.77796 142 98 82
3.41494 -3.2891 7.64955 107 78 44
-2.57518 -2.16332 9.77603 82 52 40
-4.51403 -1.89198 9.00173 94 65 45
2.12611 -1.95098 8.22443 126 98 68
-2.54232 -2.07619 9.67734 158 110 88
-2.46319 -1.98043 9.40222 82 25 8
-5.03798 -1.74301 8.66233 178 132 105
-4.34612 -1.77731 9.01708 66 29 10
-2.64694 -1.92478 9.81739 116 101 74
-2.4237 -1.8125 9.27913 88 18 4
-5.17617 -1.5759 8.74656 130 89 72
2.84262 -1.53245 9.16738 173 159 112
2.89274 -1.45708 9.34079 136 120 76
-1.27722 -1.4093 9.56292 134 111 90
-2.31864 -1.3638 9.42472 186 132 102
2.99632 -1.33888 8.90529 151 131 89
2.66696 -1.29467 8.70555 159 110 86
2.86314 -1.35565 9.23014 176 152 112
2.79142 -1.29923 8.77973 150 104 84
-4.24378 -1.18668 9.19823 58 18 6
3.51716 -1.06902 7.8373 149 124 114
3.2605 -1.05755 8.16322 78 60 46
-1.58037 -1.15489 9.51231 127 81 66
3.42343 -0.978836 7.72767 136 60 55
2.29988 -0.999478 8.64754 102 64 40
2.51105 -0.997046 8.60427 169 122 101
-5.35276 -1.00518 9.35197 137 111 91
2.27034 -0.964443 8.53401 102 58 38
2.78486 -0.992109 8.88243 166 99 80
3.52699 -0.922605 8.50795 156 128 117
3.1989 -0.796495 7.62455 176 88 68
2.2722 -0.791942 8.4329 76 51 37
-5.37908 -0.686067 9.42623 156 135 113
-5.37139 -0.496216 9.21254 198 146 119
-1.72038 -0.300758 9.87774 56 17 6
-2.6854 -0.233667 8.68429 85 40 23
2.62879 0.423985 10.6705 114 96 70
2.98747 0.465704 8.41547 81 59 50
3.45131 0.500922 8.20702 166 143 132
3.58849 0.516582 8.30482 68 44 31
-6.09271 0.242898 6.42102 185 72 74
3.39127 0.545072 8.20421 167 141 128
3.12329 0.557747 8.48992 156 121 104
-5.67334 0.296076 6.67367 152 97 96
3.01904 0.585501 8.42021 147 119 107
-5.64216 0.408488 6.77159 154 114 111
3.34749 0.750875 8.45208 78 49 30
-4.99113 0.564846 7.60667 147 54 31
3.66185 0.893735 8.30897 202 180 168
2.08601 1.16186 9.3862 84 57 38
2.62371 1.23815 8.33983 222 198 191
3.37245 1.41815 8.19058 158 124 110
-6.50943 0.925872 6.94879 132 53 28
-6.5118 0.92329 6.85356 166 128 98
4.14102 1.71308 8.22512 54 30 18
2.94772 1.66921 8.28144 112 72 58
4.1765 1.95398 8.35009 55 42 28
3.08746 2.02157 8.45647 49 20 17
-1.52753 1.74868 8.32118 116 95 82
-5.71331 1.33671 7.17413 36 32 46
3.23282 2.06206 8.36379 60 40 34
-1.23729 1.79523 8.30883 140 116 105
-0.383099 1.67827 7.11128 58 38 27
-1.20135 1.70982 7.58752 136 88 86
-1.41341 1.82277 8.16087 122 100 93
-5.83664 1.40136 7.17498 124 118 130
-1.57207 1.86498 8.23279 186 164 152
-0.608959 1.74511 6.97937 58 34 22
-3.9752 1.95625 9.57243 51 16 10
-1.58001 1.89149 8.21166 120 96 84
0.684518 2.00441 8.0118 82 62 54
-0.907309 1.86322 7.41765 242 226 218
-0.706743 1.88255 7.4291 171 158 155
-0.145809 1.98339 7.7033 159 142 132
-6.5477 1.4432 6.90317 132 92 44
-0.139343 1.937 7.27133 82 68 64
-0.821428 1.91601 7.35373 59 46 40
-0.254079 1.95881 7.28156 106 90 84
-0.190932 1.96919 7.25838 128 115 110
-0.217926 2.00101 7.37658 64 47 40
-5.53059 1.6814 7.54207 48 22 31
-0.839595 1.96519 7.31766 178 162 156
-0.111922 2.06079 7.31258 67 49 46
-0.885177 2.04434 7.41215 88 74 72
-5.49355 1.87534 7.61132 130 48 36
-0.816658 2.6281 8.19353 154 135 132
-6.0152 2.02285 7.29784 146 84 50
-0.882546 2.85349 8.31912 93 60 55
-5.95723 2.53007 7.76966 136 56 36
2.56458 -3.47537 9.0051 128 110 66
2.4291 -3.41291 8.86047 149 136 90
2.07802 -2.37306 7.2304 148 125 102
2.18308 -2.31384 7.27427 99 36 18
-2.40496 -2.56046 9.94017 151 144 105
-2.2503 -2.21763 9.20424 64 27 11
2.14076 -2.21733 8.61018 122 114 70
2.09122 -2.09714 8.32629 96 78 54
-2.57745 -2.16894 9.78812 79 48 36
-2.24793 -2.05782 9.22773 178 116 95
2.09189 -1.94692 8.17797 113 86 55
2.47444 -1.6726 6.96695 118 34 28
-5.0413 -1.75501 8.71617 155 109 82
2.26095 -1.61225 7.35826 164 136 124
-5.20796 -1.52664 8.80177 57 23 8
-1.34186 -1.71316 9.71948 138 125 96
-2.38949 -1.57308 9.90527 165 145 110
2.84316 -1.22988 6.90885 158 128 113
2.71944 -1.51747 8.96977 167 161 112
-5.05772 -1.25699 8.73869 124 86 68
-2.40239 -1.4277 9.6696 83 37 13
-2.39087 -1.41637 9.79 94 48 20
-2.26901 -1.38085 9.51338 201 146 117
2.8978 -1.33224 8.78265 111 78 42
3.32714 -1.05909 8.25157 70 56 42
2.54085 -1.09842 9.01103 146 110 83
2.44003 -1.02967 8.71208 90 28 13
2.81935 -0.998445 8.92036 148 82 62
2.52955 -0.992373 8.95426 125 87 66
3.10689 -0.78939 7.52371 162 73 54
2.38752 -0.806264 8.60536 80 56 40
-1.53503 -0.693674 9.51604 138 90 72
-1.40571 -0.422549 9.64216 98 80 61
-5.76534 -0.755955 16.6565 68 32 16
-1.73826 -0.306607 9.8232 58 20 10
-6.11127 -0.157791 6.55163 115 96 97
-5.22639 -0.0848555 9.50624 134 106 90
2.30843 0.184401 9.35937 139 113 97
2.56728 0.469409 10.48 136 112 86
2.87985 0.453341 8.39433 65 48 40
2.95127 0.451472 8.39084 98 72 58
3.04586 0.49533 8.32555 65 35 18
3.58578 0.510201 8.29626 70 46 33
3.01405 0.5447 8.40744 118 94 82
3.16249 0.559838 8.55244 146 111 96
3.44756 0.6366 8.39053 48 29 14
3.41615 0.62809 8.24201 122 98 86
4.08899 0.721985 8.36111 99 58 40
3.28876 0.74301 8.38756 84 55 37
-5.66826 0.421133 6.68065 108 86 84
-6.25876 0.441532 6.56393 84 46 38
-6.21969 0.455369 6.44172 72 28 22
-6.19458 0.455713 6.43062 178 136 129
-5.72428 0.478909 6.60499 154 110 112
-4.99603 0.564108 7.63231 148 66 32
3.69138 0.894864 8.33705 186 161 150
2.23137 1.00687 9.82519 112 74 58
-0.94174 1.11939 8.67054 148 91 79
2.47944 1.39397 8.86181 98 75 72
3.40354 1.42116 8.23948 134 98 82
-6.52013 0.922786 6.98767 134 48 32
-6.54051 0.933124 6.9852 170 138 116
3.05418 1.64038 9.17955 235 223 215
3.04694 1.67952 8.40787 132 98 88
3.6955 1.77065 8.15857 134 72 68
-3.24155 1.74544 9.85866 72 32 20
-5.775 1.24279 7.0916 116 112 120
3.11584 1.96805 8.5433 46 12 13
-1.51245 1.71317 8.19431 112 92 78
-1.35116 1.71337 7.97112 154 130 116
3.32145 2.04891 8.35219 38 20 18
-1.44038 1.77023 8.22712 156 136 124
-4.95591 1.81275 9.84028 182 130 109
-1.17787 1.73798 7.8281 154 120 114
-3.72143 1.87046 9.5504 116 68 50
-1.54824 1.8728 8.30014 149 126 114
0.626661 1.95834 7.88103 75 55 46
-1.52068 1.87377 8.1225 120 100 96
-1.20044 1.92202 8.29382 146 114 104
-1.57041 1.8975 8.22819 120 96 84
-0.196654 1.95547 7.59841 154 138 128
-6.55644 1.43748 6.92748 136 90 38
-0.897832 1.89907 7.41159 202 182 175
-0.679316 1.96206 7.49303 70 60 58
-0.285674 1.94661 7.38 162 144 136
-5.52831 1.66787 7.50282 58 32 40
-0.820156 1.97362 7.36946 132 116 110
-0.755452 2.00692 7.40088 114 98 94
-0.740383 2.04046 7.31287 56 34 30
-0.225063 2.08892 7.29262 63 41 40
-0.087522 2.09638 7.30802 170 158 156
-0.800488 2.08069 7.35138 46 26 20
-5.79221 1.78788 7.34923 28 18 31
-6.08045 1.81819 7.17905 50 32 40
-6.06217 2.09454 7.45638 120 32 16
-5.93992 2.35118 8.27352 138 94 87
-5.97407 2.3142 8.04467 160 122 107
-0.932983 2.76546 8.03096 154 126 120
-6.01409 2.41151 8.28085 114 46 21
-6.31395 2.37939 7.78437 145 79 42
-6.34887 2.49649 7.95074 158 88 78
2.90377 -3.39454 9.07057 110 96 64
-1.83813 -2.5064 9.35872 40 23 9
2.33094 -2.53961 8.9811 132 99 60
2.15783 -2.0551 6.97068 132 88 66
-1.98959 -2.27816 9.23388 97 62 44
2.05536 -1.96625 7.46285 93 84 71
1.988 -2.04257 8.09664 127 106 84
-4.96708 -1.83664 8.66691 118 78 55
-2.55574 -2.06625 9.56665 160 112 89
-2.26584 -2.02437 9.31957 93 38 21
2.37127 -1.68817 6.85424 109 27 18
-2.64238 -1.99655 9.93792 99 88 56
-5.20286 -1.63192 8.73422 119 78 56
-2.42107 -1.80582 9.29328 94 26 10
-4.39833 -1.65338 8.90204 52 12 1
-5.20488 -1.5145 8.73696 57 23 6
-2.38508 -1.55735 9.69907 102 50 29
2.69477 -1.52062 8.92229 167 156 108
2.72707 -1.42402 9.09264 132 110 68
-2.16417 -1.40099 9.63098 210 158 128
2.78719 -1.35648 9.13982 167 152 106
2.93709 -1.3433 9.0668 154 104 80
2.80448 -1.30994 8.80723 130 82 60
2.76784 -1.29973 9.11611 110 72 41
3.21356 -1.13108 8.25158 114 96 80
3.46892 -1.06863 8.43547 68 56 42
2.60553 -1.09871 9.07368 116 68 48
3.35475 -1.00159 8.44895 84 71 56
2.56295 -1.00442 8.68649 143 93 73
2.29428 -0.971233 8.55733 104 60 39
2.82325 -1.01212 8.92493 128 62 41
3.50503 -0.92018 8.46687 152 122 112
3.16537 -0.834192 7.79678 80 23 13
3.098 -0.7897 7.50777 162 73 54
-1.50095 -0.695867 9.62637 135 87 68
-5.04953 -0.567605 9.22551 107 62 48
-1.40444 -0.365746 9.6901 83 63 43
-5.34051 -0.354747 9.49802 63 32 19
-1.68328 -0.311485 9.99821 54 16 6
-4.84254 -0.303063 9.41828 88 42 27
-5.91365 -0.151762 6.7178 134 120 116
-5.0611 -0.112287 9.56022 106 66 57
2.28333 0.162422 9.20158 142 118 100
2.89691 0.206558 10.3687 103 85 64
2.56684 0.218292 9.78406 92 73 59
2.40046 0.215125 9.32468 64 44 28
2.83287 0.241419 9.47247 59 38 27
2.59489 0.412191 10.581 101 78 50
2.88003 0.433346 8.24324 54 22 8
3.00067 0.451626 8.45473 104 74 58
2.38669 0.469331 9.65658 57 30 8
2.66369 0.471645 9.39469 167 132 113
3.01645 0.496756 8.28824 52 24 8
3.81577 0.524844 8.56511 77 52 40
2.94505 0.536202 8.59169 87 70 62
3.01172 0.535035 8.39814 83 60 50
3.04608 0.61169 8.72134 66 50 44
-5.62165 0.326649 6.60302 161 128 125
-5.07535 0.475156 7.77152 105 34 9
3.37136 0.75373 8.5008 86 58 38
-6.20291 0.455395 6.50436 178 138 132
-5.69979 0.479247 6.6234 159 134 132
-5.7111 0.492866 6.94397 156 127 130
-6.28798 0.471825 6.61066 178 133 124
-4.99853 0.562985 7.61447 148 66 32
-6.21767 0.479718 6.5766 184 131 124
-6.22094 0.485712 6.48918 154 95 89
-5.5798 0.526644 7.07519 156 118 97
-4.97548 0.819159 7.65039 130 50 30
2.56327 1.20286 8.36964 180 156 147
-0.926253 1.13115 8.71287 148 90 78
-6.54465 0.843747 7.0785 137 72 61
3.20548 1.39232 8.01627 154 122 109
-1.03714 1.16112 7.34965 70 14 8
-6.52131 0.923487 7.02378 134 40 25
-6.53323 0.926601 6.92346 165 136 117
3.20734 1.72007 8.60131 126 90 78
0.655313 1.75025 7.81841 102 88 76
-1.49563 1.72683 8.23937 110 92 77
-1.4462 1.75388 8.20083 156 136 122
-5.79572 1.34445 7.13331 28 24 36
-1.18392 1.72856 7.81859 119 78 72
0.58325 1.85138 7.93585 132 108 99
-1.504 1.8113 8.21218 128 110 103
-1.49418 1.81746 8.16002 144 124 119
-1.59597 1.80758 7.95149 155 136 130
-5.92697 1.39762 6.99225 52 49 58
-1.46125 1.88942 8.25586 100 80 75
-1.1909 1.92543 8.32689 128 97 88
-0.176244 1.93701 7.24585 98 86 81
-5.46423 1.63944 7.49143 65 38 48
-0.282256 1.99407 7.22586 116 99 93
-5.71012 1.65883 7.12535 38 15 28
-0.0859201 2.09237 7.31069 158 144 142
-5.49883 2.18265 8.07596 129 72 45
-6.34664 1.99158 7.40058 158 83 76
-5.92067 2.08283 7.59544 146 92 79
-0.909273 2.6189 8.00612 122 96 92
-6.19986 2.10384 7.28362 138 34 21
-5.91935 2.20714 7.61034 140 94 75
2.48413 -3.4377 8.88226 154 139 94
2.32766 -2.99091 8.89103 164 155 106
2.0955 -2.63811 7.9056 134 110 94
2.46909 -2.8826 9.1006 164 157 112
2.38459 -2.37096 7.50554 98 18 9
2.10841 -2.57786 8.45108 98 60 30
2.10091 -2.44846 8.23269 122 103 83
2.35496 -2.53157 8.98762 124 72 40
2.31641 -2.25301 8.87443 108 99 54
-2.229 -2.06086 9.18116 180 118 98
2.15037 -1.89696 7.65732 76 58 51
2.09598 -1.96018 8.14411 118 92 68
-4.50589 -1.8858 8.94289 84 56 36
-2.32038 -1.98567 9.10346 102 45 28
-4.89916 -1.81037 8.70605 148 102 79
-4.35409 -1.9056 9.16465 60 36 11
-5.03178 -1.74587 8.67586 164 117 90
-2.59263 -1.93652 9.49878 114 70 48
2.32235 -1.7133 7.52989 106 70 48
-4.43257 -1.67832 8.57489 170 118 97
-4.34685 -1.75672 8.99547 69 30 12
-5.19999 -1.50628 8.67908 54 21 6
-4.75378 -1.45009 8.80764 166 112 98
-4.60626 -1.35716 8.65307 60 16 8
2.64803 -1.50839 8.85056 166 154 106
2.81934 -1.49425 9.18486 120 81 42
-2.40386 -1.43161 9.95937 170 120 88
2.72188 -1.30064 8.6981 128 80 58
-4.23141 -1.19625 9.39005 57 17 4
2.66492 -1.13923 9.20361 116 74 47
2.34361 -1.03146 8.5681 82 14 4
3.2072 -1.03589 8.45362 90 76 56
3.27291 -0.890336 7.50407 114 16 10
3.51598 -0.877511 8.55903 63 51 38
2.42693 -0.800496 8.67077 108 84 70
-4.86439 -0.734905 9.44788 97 50 38
-1.51137 -0.685465 9.57007 150 100 82
-6.17302 -0.371026 6.47115 119 114 110
-5.48543 -0.488927 9.59022 126 104 79
-1.33306 -0.458887 9.84075 154 134 115
-1.37967 -0.372565 9.76161 82 60 40
-5.39544 -0.295388 9.3896 146 127 110
-1.87349 -0.244223 9.49827 118 78 60
-5.28241 -0.235174 9.19641 160 106 80
3.36052 -0.0374719 7.93505 178 154 144
-2.76507 -0.0550267 8.41413 80 30 14
2.43592 0.237926 9.38751 27 16 4
2.57619 0.396303 10.5413 110 85 58
2.96007 0.453247 8.40508 102 74 60
2.71407 0.475152 9.28317 90 52 34
2.85873 0.469822 8.36869 17 8 5
3.24643 0.46915 7.97339 174 146 136
3.01793 0.536827 8.67369 76 60 54
3.53271 0.549635 8.40752 172 141 125
3.14447 0.559835 8.55727 144 116 104
2.96444 0.595594 8.60734 49 34 28
3.01459 0.634626 8.55615 10 8 3
3.45504 0.647769 8.37881 30 13 2
-6.3123 0.329848 6.59496 192 147 138
3.45496 0.678695 8.19348 27 20 14
-6.28925 0.445456 6.58059 182 147 138
-6.24198 0.444059 6.51183 72 30 24
3.74982 0.900205 8.399 185 161 150
2.22689 1.13694 9.20921 146 116 96
3.34778 1.42792 7.93672 140 100 84
2.31362 1.68104 9.32671 28 16 7
2.91445 1.69657 8.29813 150 126 118
-5.66351 1.15835 7.12797 124 116 118
0.751654 1.78288 7.99792 100 84 71
-1.26176 1.75213 8.22969 154 132 117
0.684697 1.84653 7.85414 202 184 178
-3.70123 1.9117 9.70887 127 79 61
-5.91328 1.39196 6.948 37 34 44
-1.23188 1.91109 8.19635 148 118 106
-0.0221585 1.87969 7.33574 146 88 85
-6.56564 1.42468 6.92356 124 80 36
-0.874027 1.9094 7.46922 181 161 154
-6.42529 1.46751 6.96609 138 58 32
-0.246335 1.96747 7.44018 187 170 162
-5.51237 1.65971 7.46692 48 27 36
-0.258573 2.04075 7.38528 98 81 74
-5.79812 1.75207 7.30921 31 20 32
-6.07982 1.81642 7.17512 50 32 40
-6.01818 1.84425 7.20847 45 24 36
-6.08179 2.08022 7.73802 70 2 2
-6.3734 2.02834 7.55068 162 89 82
-5.97537 2.03508 7.37565 124 19 16
-5.93606 2.11525 7.71068 132 70 56
-6.02337 2.05186 7.40623 144 82 48
-5.96706 2.40831 8.51099 134 92 84
-5.56189 2.41202 8.06296 152 77 42
-5.72064 2.46967 8.04637 129 60 26
-6.35197 2.47431 8.04859 142 56 35
2.83754 -3.38028 9.00958 138 126 92
-1.88357 -2.48382 9.26133 45 26 14
2.27252 -1.98061 7.19552 103 62 38
-4.91089 -1.92144 8.72558 92 60 38
-2.21898 -2.07205 9.24134 178 116 96
-4.36151 -1.72975 8.84564 88 48 32
2.11927 -1.65383 7.4341 138 111 94
-4.40621 -1.66129 8.82441 90 48 38
-2.6006 -1.90483 9.95038 45 24 2
-4.75711 -1.43259 8.62742 140 89 75
-4.70548 -1.28233 8.76206 167 105 86
2.83064 -1.48306 9.24382 120 95 54
-2.38913 -1.43313 9.70038 77 30 8
-1.6961 -1.36667 9.49547 62 18 10
2.70783 -1.30924 8.75859 144 93 69
3.79866 -1.26168 9.22874 52 48 28
3.2163 -1.12964 8.25125 117 96 82
2.43912 -1.14702 8.84612 143 111 80
-4.67614 -1.07055 9.04566 149 90 73
3.2161 -0.976028 7.73711 136 84 73
3.19282 -0.983333 8.2319 102 86 70
3.27473 -0.931427 7.74408 132 47 34
2.8165 -1.01088 8.93862 134 72 52
2.86459 -0.768403 7.28671 148 56 38
2.1443 -0.733062 8.40469 178 146 133
-5.05012 -0.555413 8.99963 108 62 50
-1.35873 -0.476751 9.4477 100 58 35
-5.86986 -0.295061 6.6286 38 36 58
-5.299 -0.239071 9.51784 160 104 80
-5.31442 -0.110111 9.4903 94 56 33
-5.16586 -0.10163 9.34184 39 11 4
-3.42613 -0.052728 8.29904 82 36 20
-5.60404 0.0747734 6.76725 116 45 32
2.53756 0.324989 9.56424 124 96 79
2.73413 0.472586 9.33651 94 56 37
3.47101 0.488796 8.28871 178 151 138
-6.09749 0.232151 6.35708 182 70 74
2.98907 0.532108 8.64829 98 78 71
3.37752 0.549559 8.09568 128 105 92
-6.30723 0.341056 6.59346 184 154 146
3.43463 0.677543 8.18923 28 20 14
-6.18521 0.397587 6.43833 176 114 108
3.32964 0.803857 8.47147 123 93 74
-6.2554 0.45083 6.5469 81 42 34
-5.60318 0.539139 7.36101 158 131 107
-4.97418 0.82137 7.77003 139 54 32
2.42796 1.198 8.10919 174 149 140
-6.5344 0.814235 7.04996 170 132 118
2.43973 1.47061 8.81372 108 86 85
2.82434 1.48223 8.45958 120 86 72
-6.53602 0.928223 6.91319 164 138 120
3.12179 1.6958 8.47782 121 81 67
-0.95912 1.3793 7.4208 76 14 15
3.06069 1.74239 8.51886 156 131 124
3.01301 1.79459 8.18192 92 10 12
-2.3859 1.8498 10.3273 195 142 112
-5.77079 1.21592 6.96518 126 120 126
0.560284 1.7261 7.70193 98 80 68
-1.15456 1.7667 8.37988 124 64 54
-5.68326 1.34042 7.22006 102 97 108
-1.17752 1.80211 8.50018 156 134 119
-1.44336 1.76396 8.21242 158 136 124
-1.20519 1.71372 7.76567 124 82 76
-1.24253 1.76173 7.59289 101 70 63
-1.46271 1.86052 8.16 93 70 64
0.730781 1.98751 8.07914 80 56 46
0.499557 1.95677 7.8579 150 128 117
-1.18313 1.95537 8.37052 150 123 111
-5.90775 1.43732 6.97986 46 41 53
-1.35771 1.97038 8.40806 150 127 117
-0.713809 1.85478 7.45716 140 128 126
-4.90507 1.99696 9.80284 202 149 120
-6.56212 1.41229 6.89558 125 80 35
-6.38864 1.43394 6.77447 137 54 32
-0.288008 1.95248 7.38301 162 144 136
-0.228003 2.01681 7.17893 38 24 17
-1.00029 2.03968 7.49918 137 62 58
-0.665532 2.04532 7.39627 134 116 113
-5.73651 1.68755 7.20892 28 16 30
-5.5678 1.91286 7.8221 132 54 36
-5.5102 1.90147 7.77553 128 24 24
-6.08198 1.82507 7.19351 43 26 34
-0.97438 2.58942 8.54686 82 54 44
-5.82372 1.97051 7.23436 161 115 106
-1.0059 2.47025 7.7264 151 116 110
-5.50329 2.19475 8.0588 130 68 38
-6.35943 2.01339 7.46757 170 106 98
-0.88303 2.64311 8.06877 138 112 107
-6.01505 1.99669 7.05746 121 24 16
-5.93233 2.32233 8.18048 140 100 94
2.78243 -3.35619 8.91763 123 110 76
-2.59124 -2.337 10.0712 154 148 106
2.39798 -1.87196 6.98421 90 42 19
-1.88644 -2.14064 9.27566 120 80 66
2.1736 -2.10384 8.51959 92 74 43
-4.38568 -1.94575 9.26264 56 35 13
-2.31969 -1.97338 9.0707 90 34 18
2.32994 -1.75269 7.32998 99 28 24
-2.62448 -2.10934 10.1225 121 113 74
-5.15671 -1.69338 8.74838 120 78 58
-4.66115 -1.66934 8.63466 56 24 12
2.35603 -1.63115 7.49822 154 122 108
-4.40442 -1.65805 8.83453 80 36 25
-2.51496 -1.9832 10.4061 60 38 17
-2.37206 -1.84002 9.5805 102 32 17
-5.13249 -1.59182 8.67951 52 22 11
-5.02101 -1.60959 8.7851 168 117 91
3.00138 -1.6761 9.06252 86 34 8
-1.23488 -1.5217 9.64924 72 50 25
-1.6734 -1.46365 9.46469 120 74 59
-4.6335 -1.30244 8.86004 198 140 118
-2.40432 -1.44442 9.61534 89 43 22
2.71523 -1.45213 9.06021 118 88 48
-5.05969 -1.23135 8.57727 122 82 64
-2.25883 -1.40123 9.49153 160 104 78
-2.18839 -1.4077 9.55737 174 120 92
3.30201 -0.988179 8.36678 100 84 69
3.27004 -0.822541 7.92342 90 37 28
-1.56729 -0.687564 9.41333 129 82 65
-2.35652 -0.630137 9.14846 117 70 46
-6.1449 -0.432517 6.52774 114 110 100
-6.07644 -0.318494 6.43085 90 87 117
-5.40682 -0.365959 9.36277 161 143 123
-3.58167 -0.233881 8.34001 210 154 118
-5.29594 -0.241388 9.3258 152 98 72
-2.7759 -0.0556287 8.49618 83 32 18
-5.25497 -0.0655916 9.70557 162 140 122
-2.85733 -0.00653977 8.49339 178 124 110
-5.12567 0.097823 9.35517 124 86 65
2.65644 0.386636 10.683 115 94 66
-6.13811 0.24804 6.59006 181 69 72
3.33856 0.605588 9.10201 50 36 30
3.54825 0.594022 8.31874 148 123 111
2.73097 0.596925 8.23519 10 8 6
3.42146 0.648137 8.33683 29 10 0
-6.25947 0.334286 6.42215 184 155 149
3.51192 0.67879 8.28113 25 20 14
-6.21647 0.453527 6.5582 172 130 124
-4.96579 0.797269 7.54465 134 42 26
-1.08983 1.02744 8.19639 144 104 90
-3.4018 1.42508 9.55236 140 94 74
-3.08035 1.75877 10.0365 100 65 53
-1.56273 1.74078 8.15789 95 74 61
-4.94806 1.80422 9.79178 180 130 110
-5.67296 1.38936 7.20694 26 18 34
-1.26622 1.72967 7.48496 111 85 81
-1.58424 1.81933 8.03733 114 95 88
-3.94342 2.03188 9.95802 52 16 10
-5.02512 1.9603 9.78824 178 128 99
-1.38832 1.95009 8.30421 150 127 117
-0.64129 1.85794 7.38414 142 122 118
-0.81465 1.91073 7.35766 109 94 88
-1.10959 1.96127 7.25689 142 42 40
-5.79833 1.74057 7.29804 32 19 30
-6.07684 1.88303 7.40326 45 31 46
-0.764891 2.58138 8.03422 145 117 114
-0.439447 2.55222 7.7937 129 87 85
-6.02151 2.04404 7.37723 144 80 49
-5.86503 2.245 7.98334 80 12 11
2.37185 -3.36406 8.72827 102 81 39
2.89261 -3.15555 8.49461 129 113 75
2.34907 -2.80818 8.90183 160 149 104
2.03192 -2.58587 8.37528 152 116 78
2.34661 -2.37139 7.43712 102 12 8
-1.77445 -2.36212 9.26512 44 28 16
-1.83952 -1.98287 9.06923 116 78 61
-2.51851 -1.99565 9.38612 60 12 4
2.31088 -1.61616 6.98317 91 32 30
2.33665 -1.666 7.59562 90 54 30
-5.0468 -1.61199 8.74595 166 116 86
-1.47463 -1.6325 9.58527 38 14 9
-5.09239 -1.38659 8.64431 170 120 100
2.97659 -1.5126 8.89583 118 65 33
-1.69568 -1.46489 9.37887 120 72 58
-4.67826 -1.27331 8.61967 184 120 102
2.88013 -1.27257 8.16477 134 128 82
3.24742 -1.19844 8.40367 82 70 50
-1.5918 -1.20211 9.47991 127 82 64
3.39595 -0.951502 8.39339 116 90 78
3.44508 -0.889835 8.82332 90 70 52
-6.01228 -0.485823 6.49323 104 100 93
-6.23804 -0.349996 6.81869 104 100 100
-1.84756 -0.289106 9.41726 58 19 8
-5.25817 -0.0538192 9.48049 158 142 122
3.70338 0.196187 10.8636 96 70 54
2.5428 0.378616 10.552 150 137 112
2.80332 0.452795 9.39814 90 54 36
3.02435 0.551511 8.41076 138 109 96
2.85415 0.581416 8.458 26 16 12
2.18741 0.659211 9.52459 142 118 103
-6.21061 0.444737 6.52513 186 144 140
0.072868 1.01805 7.94226 124 54 39
-4.96549 0.830646 7.81214 130 30 18
-5.65393 1.20778 7.13828 28 22 34
-5.59746 1.80566 11.086 150 100 88
-1.21061 1.71735 8.17992 110 23 16
-1.35632 1.62336 7.37587 111 65 56
-1.39043 1.84531 8.68298 91 72 56
-0.145583 1.8411 7.39196 140 90 83
-0.92631 1.87763 7.40753 152 132 122
-6.37343 1.42835 6.75115 136 39 25
-5.76472 1.69343 7.08397 28 17 31
-6.03908 1.82717 7.14423 31 20 35
-6.01644 1.95218 7.27244 72 2 2
-0.980808 2.71014 8.57488 119 88 82
-5.52494 2.23509 8.03336 126 44 24
2.42932 -2.99304 9.1115 164 155 101
2.29591 -2.54983 8.94136 163 150 104
-1.98525 -2.30895 9.18432 78 45 28
-1.81312 -2.20296 9.37178 90 56 40
1.95117 -2.11227 8.33582 134 127 81
-1.71185 -2.08572 9.43834 68 35 22
-4.80928 -1.64134 8.57768 34 14 8
-1.36051 -1.75218 9.62513 75 64 34
-1.65129 -1.57831 9.09827 36 18 12
-2.3022 -1.54939 10.0913 66 22 4
2.53156 -1.44843 8.78168 118 84 42
3.32626 -0.884078 8.67169 94 74 56
-4.7215 -0.830382 9.18216 101 44 26
-5.0452 -0.375233 9.31491 102 58 46
-1.78397 -0.322894 9.63457 66 30 19
-1.37201 -0.341157 10.1419 90 50 34
3.06459 0.405848 8.33182 164 110 86
2.53683 0.535042 9.45812 128 96 78
-5.59277 0.49885 7.15747 136 86 63
-5.5841 0.608366 7.32088 74 8 4
-5.52179 0.617953 7.32812 104 48 18
2.33568 1.02415 9.11035 132 62 40
2.14382 1.24495 9.50002 64 40 22
-0.614797 1.16255 9.4101 147 111 95
-2.74836 1.73166 10.2584 178 127 99
-3.02395 1.83659 10.4881 104 70 60
-2.00669 1.92064 10.6883 169 116 90
-5.85061 1.22628 6.97358 31 22 36
-5.81646 1.24183 7.14287 62 54 64
-3.119 1.91208 10.4576 108 74 64
-1.21753 1.77159 8.42461 154 133 118
-3.28826 1.89211 9.54745 74 36 26
-4.93891 1.9782 9.77493 200 148 116
-0.802614 1.91823 7.37219 70 56 51
-0.326882 1.90783 7.12359 100 84 78
-0.448543 2.03837 7.34239 136 60 56
-5.77573 1.72857 7.31377 26 16 31
-5.48824 1.9879 7.80221 156 122 98
-0.990035 2.40487 7.48703 144 69 66
3.45935 -3.26314 7.39257 214 161 137
3.50461 -3.14673 7.30798 194 145 123
2.11709 -1.98949 7.52417 112 97 82
-2.24512 -2.063 9.27598 177 116 90
-4.55233 -1.82505 8.84315 86 52 30
2.92928 -1.54955 6.75776 116 92 85
-4.64371 -1.69306 8.74839 74 35 20
2.8571 -1.51829 6.78676 112 86 76
-5.20082 -1.63098 8.74013 124 82 59
2.29756 -1.58109 7.41116 142 114 98
2.94475 -1.46144 6.78742 64 45 40
4.56181 -1.37892 8.52934 73 56 47
-4.62812 -0.947522 9.17414 206 149 116
-3.13729 -0.919506 10.7781 108 66 44
2.60242 -0.384513 8.83146 48 14 4
-1.4068 -0.426321 9.65279 93 72 50
-3.54462 -0.29112 8.324 223 168 130
-5.89943 -0.182592 6.58418 105 96 102
-5.90048 -0.124947 6.63697 148 132 116
2.56092 0.261652 9.42862 84 48 20
-5.63864 0.29418 6.61339 142 81 79
-0.474007 0.933071 7.56375 122 102 79
-0.476678 1.15016 7.56998 126 76 63
3.96103 1.50903 8.04775 137 105 92
-0.659304 1.64367 7.07823 88 78 66
-5.71227 1.37745 7.19585 28 25 37
-0.137105 1.97161 7.31569 74 62 58
-0.140026 1.94232 7.18763 153 138 135
-0.179936 2.01951 7.3197 53 38 30
-5.56649 1.89923 7.6063 124 38 15
3.38859 -3.1851 7.35829 172 121 91
2.40469 -3.36185 8.66163 101 84 40
2.68863 -2.10052 6.80862 156 114 86
-2.55642 -2.06846 9.61117 134 88 69
-4.33292 -1.80966 9.19848 94 57 36
-5.21229 -1.56142 8.73317 122 78 52
-2.3669 -1.47622 9.87075 90 44 20
-5.90103 -0.131234 6.64624 156 142 126
3.34875 0.589947 8.10538 165 137 124
-6.31679 0.324448 6.60801 192 140 128
-5.68639 0.482508 6.66965 160 129 126
-6.25815 0.498023 6.6221 164 96 90
-0.544518 0.932486 7.63636 138 119 100
-6.55741 0.844218 7.09925 153 102 84
-5.78741 1.27527 7.10733 58 52 62
-3.98995 1.94881 9.49897 58 23 12
-0.558828 1.9235 7.47671 152 112 110
-0.740146 1.93262 7.49353 100 84 78
-0.654972 1.97523 7.4902 100 88 88
-6.00487 1.78488 7.1587 49 29 40
-6.01202 1.82253 7.21304 70 50 60
-6.00357 1.83952 7.14807 45 20 32
-0.514541 2.81591 8.04512 84 64 64
-6.42363 2.60009 8.07796 122 34 24
-5.18527 2.86029 8.01625 123 33 32
3.34495 -3.26313 7.5709 124 94 51
3.29347 -3.20131 7.52655 158 130 90
2.73331 -1.15766 9.36864 103 68 30
-3.98476 -0.967778 9.36747 96 58 29
3.90699 0.226386 8.12948 100 64 50
-5.00109 0.123534 9.61049 114 82 66
-5.66124 0.301435 6.71483 148 90 90
-6.25239 0.443559 6.55909 92 48 42
3.24835 1.07874 8.02739 121 80 60
-0.474582 0.938673 7.56945 106 84 62
0.186168 1.03334 8.08018 135 84 62
2.7596 1.48406 8.46981 118 82 68
-0.983047 1.29952 7.34605 95 28 22
-6.58404 1.38205 6.77829 157 120 84
-5.56574 1.89846 7.5638 120 27 9
-6.0714 1.80935 7.12602 44 28 38
-5.99679 1.96769 7.2112 62 0 1
-5.87282 2.22321 8.01261 86 22 8
-0.446651 2.76978 8.03277 64 36 35
-6.339 2.40662 7.88932 147 80 52
-6.42475 2.58908 8.06576 145 83 70
2.77791 -3.33474 8.89526 132 122 82
2.03481 -2.26578 7.24522 138 96 70
2.34962 -2.09409 7.02569 105 8 4
-4.45238 -1.94246 9.04223 38 22 8
-5.19792 -1.61987 8.75725 128 86 62
-1.644 -1.27204 9.58799 66 22 12
-4.67015 -1.0657 9.0611 144 86 68
2.56369 0.458214 9.57723 92 52 28
-6.11547 0.243278 6.53758 180 64 65
-5.64687 0.298472 6.64681 148 89 90
-5.71852 0.477048 6.70419 162 128 124
-5.55166 0.568706 7.16235 129 90 64
-6.39921 0.751644 7.0871 167 136 120
2.97826 1.2948 8.81323 204 172 161
3.17567 1.27008 8.0836 87 44 22
3.31562 1.41447 8.11684 170 137 124
-6.5573 0.932321 7.02436 166 139 118
-6.60654 1.39491 6.8478 164 132 102
-5.87117 1.49915 7.09035 18 14 26
0.0279636 2.14354 7.62856 96 80 77
-5.37981 1.83012 7.74097 120 24 23
-5.53465 1.8221 7.5475 82 2 5
-5.57987 1.90302 7.60722 126 22 15
-1.07651 2.42443 8.07229 110 58 49
-6.19405 2.10207 7.26243 135 32 19
-1.97324 -2.28605 9.23608 110 70 45
-2.46274 -2.20775 9.51714 162 108 84
-2.28511 -1.99614 9.24745 86 32 16
-2.49503 -2.00303 9.42589 90 40 27
-5.16809 -1.72702 8.80981 104 66 46
-4.62553 -1.37315 8.75176 127 74 63
3.54879 -1.15879 9.05763 90 84 56
3.19254 -0.859569 8.48279 102 84 66
-6.16777 -0.271638 6.45673 84 81 86
-6.33696 0.287933 6.56111 152 64 54
-5.72152 0.322099 6.58552 120 39 44
-5.63815 0.359969 6.66099 163 146 142
-6.21876 0.47429 6.56787 161 114 104
3.2021 2.03504 8.46765 154 126 120
-5.50488 1.64904 7.45234 67 52 56
-0.890187 1.99145 7.43077 100 88 82
-1.08896 2.42957 8.06405 103 59 49
-6.28377 2.37673 7.65675 138 50 25
-6.37666 2.51791 7.99985 161 107 88
2.31547 -3.31342 8.58968 97 72 31
2.16085 -2.78294 8.26503 143 120 98
-2.1409 -2.19338 9.19887 126 82 64
-2.46084 -2.20537 9.43514 168 113 90
2.04461 -2.0092 8.14337 112 82 50
-4.46792 -1.98091 9.1657 36 19 6
-4.9634 -1.68624 8.69321 156 107 81
-1.61148 -1.18668 9.5077 129 80 62
-5.8798 -0.169511 6.56776 154 142 126
