ply
format ascii 1.0
element vertex 1358
property float x
property float y
property float z
property uchar red
property uchar green
property uchar blue
end_header
0.981482 1.06542 8.36401 132 138 104
1.64287 1.24633 9.60339 180 142 133
3.14185 1.31162 9.72393 145 142 116
3.2692 1.43452 9.57035 200 198 176
3.31605 1.47621 9.56932 222 219 200
2.82837 1.5035 9.61847 79 78 56
3.44796 1.63659 9.42446 159 155 128
1.02992 1.41752 8.02894 131 139 115
3.17839 1.75543 9.38588 94 92 74
3.58219 1.84317 9.30158 223 217 199
3.37088 1.94763 9.25916 138 136 117
3.67771 2.06688 9.16175 176 163 138
3.57594 2.5642 9.67128 152 128 118
3.56427 2.61418 9.66116 152 123 110
3.65847 2.63503 9.73951 228 208 196
3.79125 2.52605 9.32245 230 210 199
3.72746 2.46279 9.01698 142 96 72
-2.29506 -2.65514 9.47278 172 166 148
-2.15462 -2.51299 9.52277 145 145 122
-2.06964 -2.41563 9.6591 119 116 92
-1.75632 -2.27487 9.65998 160 158 135
-1.73827 -2.14937 9.57749 160 158 136
-1.78828 -2.13948 9.58648 162 158 130
-1.56172 -2.11901 9.92672 150 148 126
-1.17798 -1.58914 9.90304 160 158 134
0.676445 -1.08164 9.62735 181 182 132
0.736987 -0.962244 9.84425 174 174 126
-0.321915 0.719683 8.24137 139 141 121
0.83403 0.823587 8.52612 142 136 110
0.988802 0.939394 8.41481 128 136 98
1.05211 0.935265 8.38725 128 140 102
0.992127 0.958174 8.3913 140 146 112
1.66828 1.11792 9.70867 155 130 116
0.972472 1.06583 8.27608 129 135 102
1.64443 1.24752 9.61856 180 142 133
1.77489 1.29189 9.77164 152 120 112
3.12371 1.29634 9.82882 222 219 203
1.63506 1.29409 9.59477 180 142 136
1.64802 1.35538 9.6005 144 104 94
1.6209 1.45366 9.99842 81 46 35
1.54198 1.45918 9.87363 86 64 54
3.24403 1.4205 9.53247 234 231 216
2.90435 1.54206 9.63765 94 94 72
-0.935071 1.25481 7.35422 123 126 109
0.558053 1.73128 9.95571 64 33 26
3.45865 1.6622 9.39155 212 208 188
3.19561 1.76473 9.34476 127 126 107
3.68539 2.64726 9.82217 218 198 183
3.64143 2.62096 9.6383 234 221 213
-2.31639 -2.68893 9.5969 166 160 144
-2.06235 -2.61 9.67025 116 115 86
-1.97532 -2.61913 9.86645 176 172 127
-2.0688 -2.42186 9.64841 116 114 90
-2.08444 -2.35354 9.45165 120 120 87
-1.68526 -2.31852 9.87956 173 170 148
-1.88581 -2.18852 9.71551 123 118 88
-1.6538 -2.00721 9.79828 149 146 118
-1.42196 -1.79242 9.80359 160 158 132
-0.571394 -0.958429 10.0187 182 179 158
0.839321 0.826231 8.57041 144 141 112
0.98837 0.961666 8.35887 136 142 107
-0.650787 0.969701 7.82715 121 128 113
1.74875 1.17166 9.60207 90 70 62
1.61347 1.24968 9.67702 38 15 6
1.75014 1.28946 9.6741 148 116 108
2.35547 1.32644 10.096 74 58 36
2.49803 1.30217 9.87837 82 79 53
1.63752 1.2922 9.56089 180 142 136
-0.759617 1.07629 7.67362 122 132 114
-1.02828 1.10888 7.74636 188 184 158
1.65448 1.35482 9.62502 141 102 94
1.46849 1.73381 9.75921 147 110 102
3.20414 1.76653 9.36975 117 116 96
3.52594 1.78683 9.178 198 192 174
3.37424 1.94838 9.24227 135 134 114
3.56019 2.60934 9.65708 169 143 130
3.75362 2.5058 9.24305 226 214 208
3.78398 2.5629 9.32365 126 98 84
-2.49433 -2.97637 9.49099 194 194 148
-2.32169 -2.85898 9.59945 188 183 146
-2.20119 -2.67737 9.63709 179 175 158
-2.14141 -2.67708 9.64328 126 124 102
-2.00631 -2.40092 9.57128 161 156 136
-1.50455 -2.23921 10.0583 214 212 174
-1.59727 -2.14435 9.86955 137 136 114
-1.63902 -1.9908 9.71947 149 146 118
-0.94591 -1.3776 9.97629 176 174 148
0.148943 0.538156 9.11939 134 134 116
0.985795 0.956943 8.39782 132 139 104
-0.551342 1.00646 8.02404 184 156 134
0.976965 1.05938 8.28087 130 136 103
1.6386 1.28149 9.60056 174 136 130
2.43052 1.32174 9.93912 174 158 147
2.50635 1.31288 9.93419 110 103 81
3.11158 1.29175 9.79173 230 227 212
1.65347 1.35065 9.63269 142 103 94
1.58675 1.42715 9.70372 78 40 29
2.84538 1.50161 9.69634 75 74 52
1.66038 1.80879 9.96561 68 38 36
3.21595 1.77465 9.42688 120 118 100
3.58228 1.80618 9.34138 222 217 201
3.64598 2.60784 9.60063 230 220 216
0.216437 3.8227 12.1064 124 74 60
-2.17096 -2.46931 9.72825 108 110 83
-2.0876 -2.40807 9.60343 130 128 102
-1.7537 -2.42882 9.88866 151 148 114
-1.50809 -2.23501 10.0495 176 175 142
-1.22925 -1.84988 10.0568 160 158 138
-0.712478 0.394942 9.60003 145 118 90
2.96126 1.16989 9.84909 209 201 184
1.61616 1.29159 9.4808 162 122 115
0.574243 1.32611 9.10702 82 44 35
3.17481 1.35615 9.71406 187 184 165
1.55527 1.40499 9.48916 81 39 29
1.40014 1.43578 9.7958 116 100 86
3.25135 1.44012 9.45143 169 166 142
0.562033 1.6636 9.91805 156 110 94
3.39769 1.61769 9.31581 184 179 156
0.815439 1.753 9.20096 160 120 113
3.33591 1.94218 9.18301 136 132 116
3.63004 2.59187 9.57495 224 216 212
3.75273 2.62848 9.57949 122 88 69
-2.15083 -2.68202 9.64867 148 146 120
-1.99705 -2.39316 9.59728 174 164 142
-1.77642 -2.12451 9.72137 113 111 81
-0.751539 -1.15 9.99114 168 164 140
1.37233 0.548454 9.93708 86 82 64
-0.563491 0.565752 8.87256 80 62 40
-0.557483 0.931256 9.40255 146 132 118
2.99073 1.20986 9.80454 200 199 178
-0.617257 1.06314 7.98083 212 208 192
3.1549 1.36063 9.66547 114 111 90
1.47358 1.43178 9.76646 65 32 25
3.27134 1.45223 9.51677 138 136 110
-0.959925 1.27434 7.40636 109 113 95
0.867822 1.83334 9.80216 145 104 98
3.5612 2.60394 9.64765 152 122 108
3.64692 2.5956 9.61995 223 216 213
3.75698 2.5302 9.33789 222 216 212
3.61683 2.58003 9.27555 122 88 67
3.62261 2.66002 9.61662 214 194 183
-1.72948 -2.3853 9.71099 170 167 132
-1.8556 -2.1532 9.58625 120 115 84
-0.612174 1.19816 8.5445 132 102 76
3.26145 1.45886 9.49701 100 99 68
1.45263 1.6737 9.7207 196 166 154
0.859351 1.89565 7.66443 120 84 74
3.82929 2.50607 9.27388 183 135 104
-1.94402 -2.31808 9.41653 180 170 150
3.71307 2.45553 9.27153 224 217 210
3.7624 2.45626 9.13764 194 149 118
-3.09754 -3.36223 9.20429 101 93 50
-2.26672 -2.67301 9.54965 98 95 78
-2.07525 -2.62681 9.70611 87 89 56
-2.03467 -2.41833 9.61655 128 128 103
-1.66406 -2.29421 9.86583 129 132 109
-1.88743 -2.19995 9.73487 90 86 60
-0.945371 -1.36436 9.93425 156 152 128
1.67515 1.12815 9.68165 138 110 97
-2.66122 -3.11372 9.4012 154 152 104
-2.49773 -2.98765 9.50763 132 132 89
-2.40224 -2.77737 9.45127 114 114 93
-2.15382 -2.7344 9.70095 168 164 118
-2.1964 -2.66185 9.61633 154 151 132
-2.06439 -2.61382 9.67624 87 89 56
-2.02502 -2.64173 9.87033 191 190 144
-1.95873 -2.59807 9.78547 140 138 93
-1.65838 -2.32093 9.92608 96 96 60
-1.21554 -1.83323 10.0114 126 127 108
1.71195 1.14618 9.74126 52 31 22
3.88451 2.54653 9.38995 130 92 74
-2.65538 -3.11162 9.38399 150 150 102
-2.14888 -2.72685 9.68278 140 136 96
-2.203 -2.66683 9.62901 158 154 136
-2.14128 -2.6763 9.6457 100 96 76
-1.66335 -2.30472 9.85067 125 123 96
-0.951287 -1.38246 9.99208 142 141 116
0.244406 1.58579 10.0027 106 56 36
-2.39768 -2.80514 9.43901 98 100 78
-2.15842 -2.73521 9.70806 164 160 115
-2.3041 -2.62831 9.52474 86 86 58
-1.86871 -2.48807 9.39882 170 168 121
-1.77077 -2.30848 9.7588 112 112 92
-1.65172 -2.32084 9.91863 98 98 60
-1.21374 -1.83654 10.0049 130 130 110
0.171828 1.58892 10.0392 174 132 114
3.58068 2.61524 9.69996 144 112 100
-2.14657 -2.6815 9.65653 94 90 68
-2.0433 -2.58076 9.5938 85 86 58
-1.64662 -2.31178 9.92351 98 99 64
-1.57862 -2.12776 9.88707 126 126 104
3.84111 2.5247 9.27806 114 72 50
3.67332 2.68615 9.73688 102 76 58
-1.69628 -2.36834 9.88441 160 158 122
0.632429 0.699673 3.63109 64 40 24
-2.4486 -2.85288 9.50083 90 89 73
0.771378 0.658917 9.87654 39 38 24
1.66257 1.28929 9.83107 122 87 78
0.121722 1.59597 10.0013 169 128 110
-3.15704 -3.45784 9.32306 128 118 76
-1.54782 -2.2961 10.0519 110 112 75
-1.34942 -2.148 10.1768 144 146 104
-0.181822 -0.945787 10.5657 123 124 98
-2.1256 -0.872679 11.3681 143 142 92
-1.88397 -0.845002 11.3379 142 141 96
3.0356 0.863637 11.1757 154 109 86
3.69939 2.5407 9.26906 111 92 81
-2.15653 -2.67713 9.64975 98 96 78
-1.85435 -2.38382 9.7176 114 116 94
-1.54251 -2.25455 10.035 117 118 90
-1.43705 -1.80031 9.84321 128 124 96
-1.86357 -0.836746 11.2475 173 172 126
3.68535 -0.528987 11.7968 118 86 52
-0.307942 1.29021 10.0947 104 65 39
-0.0755155 1.49687 10.2533 120 78 56
0.175849 1.60837 10.1748 162 120 103
-0.672832 -3.49164 12.027 136 140 99
-1.76074 -2.45855 9.9734 142 140 98
3.73822 -0.32957 11.5141 144 107 81
1.69212 -0.0754688 10.8594 108 110 100
2.2106 1.3688 10.1535 140 97 72
2.36166 2.05166 10.7345 62 37 32
2.22145 2.90283 11.3444 60 34 32
0.772411 3.77887 11.8126 128 106 104
-1.77503 -2.1985 9.7037 124 122 99
-0.687554 -1.60953 10.5604 145 146 111
3.39018 -0.83393 12.2961 190 198 160
-1.08431 -0.636602 11.5031 168 172 126
-1.36734 -0.453095 11.2572 166 160 126
1.74254 1.23954 9.50117 119 86 81
1.63699 1.41981 9.6833 54 22 14
-1.69375 -2.37567 9.91532 154 153 113
-1.8879 -2.1881 9.73328 92 88 58
2.74239 0.963063 10.7961 34 18 11
3.06958 1.05325 11.1789 127 105 96
1.73662 1.2652 9.60152 116 83 74
0.12134 1.51535 10.0623 114 70 48
3.56823 2.6072 9.67729 122 95 82
-1.41172 -0.476448 11.3131 160 158 121
3.18837 0.328747 11.5594 149 131 108
-0.178912 1.18985 10.098 62 39 30
2.21351 1.80883 10.3617 42 18 12
-1.99737 -2.38866 9.58807 138 132 108
-1.54592 -2.29015 10.2259 173 176 134
3.17327 0.344047 11.5535 142 122 96
-0.140396 1.19751 10.1854 64 37 27
0.796229 1.05229 8.3168 22 13 8
3.55739 2.58457 9.6046 120 94 79
3.82363 -1.29407 12.0843 107 105 62
3.29281 0.698081 12.4675 116 78 61
0.830276 0.560443 8.78262 128 130 99
1.21931 0.674599 8.63311 151 156 132
0.703651 2.89939 11.0553 66 30 22
0.6585 2.97129 11.1216 138 116 110
-3.13567 -3.43759 9.26894 126 119 76
-2.32188 -2.84945 9.59032 148 144 110
1.2275 0.427966 8.83605 152 158 134
0.648255 2.43067 10.5948 59 24 16
2.18033 2.79828 11.2045 154 132 132
3.56391 2.61211 9.65977 121 92 77
-3.14063 -3.44358 9.29507 134 126 81
-2.47539 -2.97048 9.45042 153 156 107
-0.93889 -3.62082 12.0014 108 115 82
-2.39743 -2.80661 9.43958 84 84 62
0.368279 -1.66118 11.0935 142 148 114
-0.768856 -1.45685 10.268 106 108 84
1.99843 -0.271642 11.0111 188 184 154
3.14185 0.449857 12.2517 57 27 10
2.2993 0.81067 10.8985 71 60 45
1.44803 0.543643 4.90022 164 150 117
3.43883 1.6199 9.39103 160 156 138
2.239 2.2968 10.833 129 102 101
-2.37611 -2.6921 9.42877 83 79 58
-2.12591 -2.6291 9.63004 122 122 104
-1.5646 -2.11687 9.88015 110 112 88
0.847407 1.10386 8.27758 134 106 84
-2.46293 -2.7905 9.54757 92 91 72
4.90318 -2.74083 10.2664 80 78 50
3.7543 2.52865 9.32747 190 179 176
3.79683 2.58487 9.33405 96 63 48
-2.43136 -2.83216 9.48822 82 82 61
1.84699 -0.129033 11.0192 52 34 24
0.8399 1.1292 8.28265 147 125 101
1.11063 1.66456 11.2116 191 148 128
-2.51013 -2.97541 9.49637 86 90 56
1.82367 -0.127819 11.0077 64 51 41
2.84434 1.07218 10.8253 85 69 52
1.73871 1.34991 9.70101 78 46 36
3.62706 2.57485 9.5734 195 183 176
2.8946 0.958196 10.9841 44 20 6
0.597214 2.40727 10.621 129 100 92
-2.37734 -2.70276 9.40043 80 77 50
0.407279 1.55879 13.387 58 30 22
0.629004 2.17719 10.2798 38 15 12
0.535199 2.44577 10.7556 84 52 43
-2.11464 -2.42257 9.59373 73 76 52
1.30003 1.31356 8.4368 154 118 101
-0.381202 -0.207441 10.2387 150 146 111
-1.18061 0.921736 17.1205 47 38 20
3.65184 -0.449953 11.9945 172 162 132
2.30459 -0.0468052 7.25327 112 85 56
2.98406 -4.26246 11.8806 112 116 72
2.97811 -4.25851 11.8684 122 126 82
1.7985 1.36928 7.16312 141 120 105
-0.67623 0.703311 11.5457 48 32 20
0.344746 1.1601 9.9028 100 83 82
1.19906 -1.49771 11.3746 164 170 134
0.563493 1.36179 9.91265 74 49 38
1.98206 2.66878 12.5542 81 49 42
1.55977 1.19283 7.71314 145 128 106
0.619662 1.43145 10.0983 114 76 62
2.24658 2.05413 10.7233 95 67 64
2.21639 1.22098 10.3086 31 13 4
0.879243 1.25603 8.21193 146 122 96
0.492415 1.39825 9.99272 62 22 10
0.561302 1.39313 10.0483 102 76 66
0.48763 1.39191 10.0151 62 24 12
4.5197 -2.53657 10.099 146 146 101
4.45028 -2.51086 9.9936 170 172 128
4.43227 -2.48724 9.96057 150 152 110
4.44502 -2.4864 9.90729 164 166 120
-1.80387 -2.20535 9.72559 126 122 102
-1.46585 -1.91254 9.83976 124 121 99
0.630711 1.68249 12.1449 81 53 43
3.04289 0.997811 11.2114 131 99 79
2.28128 1.33074 10.9919 110 83 68
2.26723 1.3376 11.0725 106 76 61
3.33482 -0.82463 12.109 184 196 153
3.01037 0.984252 11.1783 140 107 86
3.56065 -0.665605 12.1288 70 58 22
-2.45249 -2.93601 9.37703 132 132 87
-2.3167 -2.85777 9.60033 154 152 110
-1.54911 -2.29748 10.0538 121 124 82
0.154156 0.533368 9.05941 120 122 104
-0.837399 0.865226 8.05306 179 179 145
-0.854206 0.911141 7.8996 188 186 158
0.852828 1.0746 8.46503 42 38 17
1.55001 1.11551 10.0444 28 12 4
1.61214 1.26919 9.5932 58 28 16
1.63967 1.30321 9.59312 155 120 112
0.859856 1.35082 8.05605 178 154 128
1.61229 1.44917 9.85808 80 46 36
3.28004 1.45102 9.55336 120 122 96
0.130623 1.62444 9.94736 150 105 85
3.58254 1.81772 9.36265 130 125 98
-2.26966 -2.67176 9.54776 110 106 84
-2.14951 -2.68691 9.66058 109 106 84
0.150099 0.535322 9.12007 120 122 104
0.839582 0.784977 8.64732 52 52 25
-0.836127 0.869696 8.00894 188 188 158
1.64483 1.14293 9.71473 63 30 14
1.74728 1.17205 9.57185 92 76 70
0.843898 1.29952 8.00054 70 38 24
1.56278 1.43899 9.73338 122 102 96
0.862237 1.49893 8.07324 180 146 120
1.21878 1.73181 7.77584 108 111 92
3.78182 2.52605 9.31028 208 194 184
-2.4316 -2.91639 9.32035 146 146 100
-0.93986 -1.36749 9.92232 152 150 125
0.838323 0.827638 8.56147 140 136 111
1.6062 1.26438 9.5576 53 26 17
1.56368 1.43285 9.70004 125 106 98
1.03058 2.0905 7.36491 138 140 126
-2.35697 -2.72038 9.34781 133 130 110
-1.87286 -2.18317 9.69804 94 90 62
-0.854002 0.874269 8.01757 191 190 163
-0.875478 0.92272 7.89893 169 166 140
1.21905 1.13844 8.30483 68 67 48
1.74998 1.17736 9.62621 102 84 78
1.80168 1.24405 9.61491 31 16 9
1.74858 1.26863 9.64222 112 82 76
0.86573 1.64367 7.77696 136 106 90
1.0288 2.09037 7.35163 132 138 122
-1.55944 2.86594 6.88852 139 130 117
-2.30308 -2.63432 9.55168 92 92 62
-1.96774 -2.60594 9.82957 144 141 96
1.81066 -0.0109603 9.48103 170 170 148
0.829206 0.571246 8.90877 136 138 116
-0.888255 0.880973 8.16087 192 190 165
-0.886995 0.933447 7.91953 180 176 152
1.52689 1.11783 9.84671 36 21 10
1.5585 1.25025 9.40523 30 14 8
0.843825 1.3403 7.93167 191 156 136
3.60901 2.63381 9.82048 150 126 112
3.83859 2.53591 9.3074 126 86 58
3.79345 2.59874 9.45099 92 62 36
-0.880621 0.886931 7.9861 194 191 170
1.28232 1.20032 8.96141 98 84 72
1.74227 1.29215 9.76293 106 76 67
1.64766 1.42918 9.9768 68 32 24
1.24109 1.45218 8.50861 164 142 122
3.86347 2.52059 9.37441 135 91 61
-0.106803 1.13314 9.16308 94 74 64
-1.56407 2.81931 6.87611 170 162 148
-1.67849 -2.30382 9.8856 131 132 106
1.74885 1.17529 9.6102 110 92 88
2.54441 1.358 9.92381 133 118 106
2.28682 2.03286 10.6221 136 111 109
2.78961 2.47653 11.783 34 15 11
2.18704 2.76457 11.1088 153 130 129
1.8376 4.1169 12.1645 126 94 91
-1.55646 2.86626 6.88912 131 122 108
-1.65712 -2.32346 9.9265 97 100 62
1.50105 0.325715 4.31897 126 126 94
3.4544 0.597159 11.4638 148 146 118
2.31811 1.37565 10.2061 76 50 32
1.02317 1.4059 7.9583 101 109 80
2.78592 2.48533 11.764 40 22 19
2.68084 2.51847 11.6643 80 52 48
1.03605 2.08961 7.38734 136 144 128
2.18111 2.76977 11.1286 138 117 114
1.81157 2.97348 11.0156 147 104 102
2.09511 3.27348 11.515 134 106 104
1.7995 4.05479 12.1077 119 83 80
-0.594123 -3.14409 11.7738 138 142 108
3.76003 -0.756287 12.3229 130 112 76
1.04837 0.937206 8.4039 101 110 70
1.61153 1.21479 8.94776 135 98 88
3.84344 2.51035 9.22376 128 98 79
3.77086 2.56561 9.30797 88 58 42
2.03867 3.68954 11.9264 151 126 122
-2.40073 -2.75342 9.44059 104 104 82
3.42873 0.60458 11.3458 149 142 116
1.21159 0.917117 8.42536 130 136 114
0.857131 1.36452 8.10838 176 150 125
3.37105 1.94135 9.22657 92 92 74
3.63172 2.60378 9.62368 186 172 162
3.617 2.61188 9.40658 92 63 47
-0.294612 1.14325 10.3761 116 100 94
0.967518 1.0569 8.2886 96 102 66
1.7949 1.23373 9.64538 24 12 8
1.63247 1.24565 9.51677 125 91 82
3.51611 -0.485889 11.8631 178 178 138
3.4412 0.592 11.3039 147 148 114
-0.290828 1.14675 10.7012 183 173 183
0.843762 1.11642 8.33239 125 112 93
1.62284 1.29558 9.6168 107 74 63
2.15528 1.38786 9.87357 150 108 89
0.122972 1.61805 10.1376 176 131 112
3.74046 2.51375 9.27028 191 186 178
1.59941 3.80028 11.0591 96 58 48
1.81706 4.13348 12.1899 137 109 106
-1.56222 -2.29694 10.035 122 124 80
3.68289 -0.551547 11.839 142 109 79
2.92063 0.0813698 11.9465 154 142 106
-0.936581 0.881545 8.13147 184 178 154
1.62135 1.29141 9.61682 84 52 40
0.115366 1.52762 10.155 124 78 52
-2.8363 -0.580485 11.4706 148 130 80
-1.45779 -0.481735 11.368 184 184 139
1.80093 -0.16703 11.3484 100 91 78
-0.99211 0.874117 8.23222 186 180 156
-2.09779 -2.61705 9.63633 120 120 98
0.0146048 -2.22688 11.3267 126 138 95
0.346124 -1.69697 11.1255 141 148 113
-1.32233 -0.714367 11.3644 132 136 95
1.05576 0.936308 8.38527 112 123 84
1.54993 1.46855 9.90262 84 56 46
1.88978 4.04929 12.1063 138 98 94
-2.10628 -2.62262 9.63072 124 125 102
-2.10439 -0.879905 11.4235 179 178 128
3.46467 1.66299 9.40957 174 172 150
0.601377 2.43971 10.6547 134 111 106
0.642024 2.44803 10.6933 54 30 26
-1.32721 -2.12668 10.1283 124 124 82
0.347796 -1.68852 11.1396 141 148 113
1.22866 1.74033 7.82876 102 106 87
0.797665 2.14436 10.3232 105 66 58
1.90737 3.96554 11.8196 125 86 82
3.65027 -0.841022 12.122 131 128 87
0.608202 2.42864 10.6254 136 113 108
0.0793413 3.32093 11.7633 108 59 48
1.00996 4.33709 12.6215 128 92 78
0.596335 2.42718 10.6468 134 108 102
3.81423 2.57299 9.27992 128 92 68
1.27308 1.32027 8.24206 78 53 38
-1.66694 -2.33042 9.93619 98 99 66
-0.186091 -0.949606 10.5707 122 122 98
0.0513416 -0.818746 10.7249 101 104 74
1.85452 4.17098 12.1804 126 90 85
2.98472 -4.26452 11.8833 112 124 80
2.75215 -0.36841 11.6032 168 172 134
2.24675 2.29245 10.7853 136 112 109
-1.55335 2.8669 6.88931 124 115 100
-2.40379 -2.82279 9.4454 88 87 66
2.67669 1.03286 10.4549 29 22 8
-2.4255 -2.75285 9.42306 71 73 49
-2.44934 -0.705234 11.2576 86 74 45
2.30703 -0.108053 12.295 56 35 18
-2.38123 -2.79973 9.41741 90 88 67
0.351526 -1.7736 11.8263 134 135 116
-2.50833 -2.9856 9.51066 118 116 76
0.509028 2.25843 10.735 36 12 8
0.960041 1.36526 11.0296 73 43 34
-2.23525 -2.71181 9.74013 100 100 80
1.66435 1.30038 12.1414 40 30 23
3.01212 2.5007 12.8972 58 34 26
-0.495736 2.9455 11.8813 126 98 76
1.66977 0.137013 9.50356 111 92 67
-0.174598 1.28481 10.7361 50 28 18
1.50425 0.523601 11.7239 77 76 62
4.79994 -2.59855 9.8338 132 130 88
-0.496157 1.47291 11.8769 110 66 38
-1.55972 2.82048 6.89664 114 108 88
3.7935 -1.27807 11.9487 126 124 80
2.33417 1.33255 10.1737 99 76 64
-2.19721 -2.57966 9.17125 86 86 64
3.80919 -1.29279 12.0695 102 94 53
3.80463 -1.30962 12.1689 127 124 79
-2.10628 -2.41926 9.60069 79 80 54
1.93116 -0.941795 17.2855 123 131 98
3.03397 0.998268 11.4854 122 96 76
-1.98332 -4.74063 13.2035 132 134 76
3.80165 -1.27606 12.1152 100 92 48
3.26715 1.01041 11.8935 111 76 54
0.824643 1.32797 8.01463 78 39 24
2.26168 1.33232 10.2715 51 28 14
2.98773 -4.179 11.633 94 102 59
-0.966587 -3.82151 12.048 116 116 69
5.09915 -2.8213 9.96189 92 95 67
4.72466 -2.70945 10.3671 138 136 94
1.88864 0.320293 1.24586 130 130 87
-1.31889 -2.1352 10.1389 111 112 67
0.599158 -1.80727 11.3032 152 153 108
3.25199 -1.54723 10.3757 86 94 70
2.22463 -1.0299 8.28662 116 119 81
-0.287309 -1.29413 10.7831 118 120 79
2.87815 -1.2169 10.5104 96 100 81
3.72898 -1.19441 11.4733 86 80 36
3.81508 -1.1928 11.7938 79 68 34
0.100622 -0.997745 11.0528 114 120 72
0.0721576 -0.93099 10.8497 96 99 66
-2.408 -0.710705 11.1841 50 40 10
2.09773 -0.449859 10.7318 112 115 102
3.44576 -0.508663 11.8714 154 157 119
1.2343 -0.183689 9.61055 144 147 118
0.329283 -0.227743 10.3744 120 120 94
0.358193 -0.177213 10.0943 106 106 75
-0.382595 -0.275674 11.534 136 140 92
-0.355816 -0.243291 11.6184 139 146 100
2.22189 -0.420491 13.1109 160 160 121
2.77765 -0.324721 12.1419 154 163 124
1.2192 -0.00835202 9.37141 132 136 113
2.11177 -0.308019 13.052 166 159 124
2.02069 -0.2725 12.8251 116 104 79
2.05654 -0.197483 12.9722 40 16 2
-0.947218 0.0514546 12.2715 171 156 120
3.02494 -0.0622044 12.6546 164 158 124
1.37931 0.255366 11.4 88 92 83
1.3444 0.305209 11.4502 152 152 148
1.53834 0.310748 11.4804 68 61 56
-0.996194 0.34553 12.146 52 37 12
0.0345339 0.4168 12.1057 88 94 78
3.2454 0.367754 12.1829 152 127 94
1.47995 0.43385 11.5065 90 88 80
1.34837 0.487454 11.4781 126 126 114
0.0652961 0.598311 10.5646 90 92 84
3.06289 0.568305 11.4718 50 28 12
3.45933 0.606396 11.5425 108 106 79
0.830502 0.798598 8.7002 24 22 6
-0.739291 0.988274 10.3674 84 42 26
3.26907 0.95617 11.0415 113 71 50
-0.302252 1.05983 10.4778 165 154 146
1.58948 0.993743 10.0403 80 62 48
2.72233 0.973706 10.4279 24 15 4
-0.199715 1.14123 10.4131 136 124 129
3.26276 1.06621 11.0646 98 65 49
2.9557 1.14071 10.3184 116 96 78
1.78125 1.26692 9.64134 26 6 4
1.35807 1.6153 9.85183 77 30 8
1.55783 1.59982 10.0531 71 34 20
2.34874 1.75228 10.3821 80 58 55
2.54781 1.94506 10.7975 60 32 28
1.21832 1.74225 7.90894 84 88 68
1.55738 2.30197 10.3795 123 100 92
1.54783 2.53521 10.6022 128 101 96
1.54359 2.57372 10.6434 126 101 95
2.71114 2.78111 11.9196 68 34 28
2.60824 2.8403 11.7201 50 20 15
2.47429 3.22034 11.9105 66 34 30
2.11867 3.20848 11.4473 126 98 98
1.54385 3.51349 11.404 82 34 27
1.50928 4.00842 11.8004 70 30 24
-3.18846 -3.47025 9.38308 100 94 50
2.98718 -4.23964 11.7672 95 103 63
2.87684 -4.17803 11.6956 152 155 107
4.91602 -2.81298 10.1752 87 88 44
4.91353 -2.63742 10.052 64 66 36
-0.588341 -3.14607 11.7674 109 114 82
3.25268 -1.54753 10.3638 80 86 62
3.07004 -1.3889 10.4268 84 89 72
-0.272272 -1.28323 10.6949 121 124 81
2.74181 -1.08188 10.5546 84 90 72
3.88975 -1.28129 12.1495 134 132 92
2.55011 -0.910707 10.8309 100 104 90
3.75303 -0.665839 11.9347 169 157 122
-0.849112 -0.516982 11.4972 117 118 76
3.52667 -0.551754 12.1378 112 106 72
2.51171 -0.513908 12.8583 80 73 41
1.98154 -0.27793 12.7229 108 98 80
2.11046 -0.318178 13.1274 159 154 118
-1.0765 -0.0161238 10.8402 131 105 76
1.70006 -0.0661991 10.8323 98 102 90
-1.09857 0.128194 10.4267 124 73 46
1.57698 0.0827716 11.7226 65 60 52
2.86934 0.086877 12.0342 85 71 42
-1.04794 0.227001 12.4193 122 98 76
-0.454422 0.271866 11.9173 32 22 6
1.34735 0.304343 11.3119 154 154 151
1.53491 0.309281 11.5326 94 90 83
3.25131 0.313904 12.2993 65 36 7
1.33668 0.498898 11.4742 118 118 108
3.20299 0.570585 11.19 87 47 18
1.20608 0.92432 8.33126 102 112 85
-0.365765 1.00826 10.5449 30 13 4
-0.338353 1.02079 10.6333 127 120 110
-1.11437 1.19272 7.73058 115 110 80
-0.38657 1.2989 10.3958 88 50 24
1.78765 1.25914 9.5407 18 4 2
2.34382 1.32289 10.1596 90 72 59
2.49804 1.35008 10.0616 133 112 104
2.56254 1.37602 9.85015 121 100 92
3.29749 1.44192 9.57061 112 112 92
-0.165979 1.61149 10.245 62 26 17
3.30027 1.46366 9.45814 144 144 126
1.62895 1.83459 10.0839 28 7 4
2.28832 2.0332 10.6177 96 68 66
2.10983 2.1929 10.5069 102 72 68
1.54603 2.53751 10.6106 113 84 78
2.21585 2.54994 10.9273 104 74 70
2.26362 2.5627 11.0268 38 20 18
2.18767 2.75709 11.077 120 98 96
2.13679 2.77991 11.129 54 26 21
3.78709 2.58767 9.37637 65 37 14
2.53374 3.22865 12.1477 124 90 86
2.53025 3.1325 11.6201 100 66 61
1.59934 3.02951 10.8134 90 46 40
1.51346 3.98295 11.7402 70 30 26
1.72867 4.05337 11.9587 68 32 28
-0.969001 -3.83172 12.0576 142 141 96
-2.07558 -2.39979 9.61096 62 63 40
-0.100375 -1.15518 10.8801 136 141 99
2.74605 -1.08177 10.4955 70 76 59
-0.156306 -0.590734 10.3279 100 102 74
-0.140269 -0.550558 10.33 66 69 38
-0.398481 -0.294669 11.7054 156 160 112
2.40156 -0.344947 13.103 167 170 129
2.09321 -0.312897 13.1854 165 164 125
-1.02434 -0.0466112 10.8778 159 152 110
2.22749 -0.240959 13.0949 102 74 52
2.5817 -0.202986 12.4911 164 173 133
2.17016 -0.180029 13.0958 58 29 18
1.36427 0.207975 11.271 120 122 116
-0.69366 0.204884 12.4812 157 150 112
-0.472372 0.261912 12.0536 34 22 8
1.39122 0.249756 11.2957 82 86 77
1.35424 0.291107 11.3024 145 144 142
1.5328 0.304423 11.5319 88 84 78
3.10905 0.259332 12.3922 155 136 113
3.07138 0.318077 12.0764 59 33 14
0.23297 0.614065 9.37504 74 76 66
3.2074 0.563598 11.1016 82 37 11
0.837545 0.783684 8.64484 22 20 6
3.0659 0.887574 10.9883 87 49 25
1.20568 0.924877 8.43485 114 124 98
2.9629 0.949005 11.0013 45 20 6
2.83385 0.906668 11.4265 22 13 4
-0.349107 1.108 10.6188 40 24 12
0.969912 1.06095 8.30096 86 94 54
1.63461 1.44726 10.0008 42 15 8
-0.682108 1.69077 11.3631 126 90 68
3.28833 1.43944 9.54623 110 112 89
1.54643 1.60294 9.96998 96 58 44
2.37038 1.75255 10.4925 58 36 33
2.29866 1.83043 10.5982 26 8 6
-0.624544 2.39512 12.1205 132 110 91
3.55901 2.55491 9.57331 140 122 112
2.53359 3.20474 12.0623 122 86 82
0.530066 3.72306 11.3334 48 24 10
1.47495 3.9585 11.7954 116 78 72
1.84985 3.99616 11.8502 108 76 73
-1.56063 -2.31296 10.0822 111 116 69
3.29727 -1.15658 6.41906 150 147 111
-0.278974 -1.30193 10.762 145 146 100
-0.106369 -1.15841 10.8693 126 131 91
0.1072 -0.988065 11.0039 141 146 97
-0.144364 -0.585373 10.2429 96 98 70
-2.75608 -0.555567 11.2867 106 82 37
3.76995 -0.677974 12.0867 170 156 120
2.09702 -0.459152 10.6768 74 77 62
3.7031 -0.580722 11.758 95 64 34
3.55923 -0.429593 11.5954 167 170 130
2.74125 -0.322383 12.2902 140 152 109
0.561908 -0.0689734 10.2153 90 86 64
1.20765 -0.0211011 9.7787 74 78 57
2.70092 -0.27723 12.238 164 176 134
2.57586 -0.202414 12.5103 162 172 131
2.02492 -0.176393 12.7205 31 14 3
3.02182 -0.0398103 12.3921 165 168 130
3.48017 0.0857908 11.2285 164 124 110
-0.422927 0.206461 11.7418 156 146 122
-0.868977 0.254182 12.947 58 28 11
-0.98766 0.316256 12.1749 47 26 4
1.39372 0.329115 11.2911 119 120 110
1.50975 0.639811 11.5999 12 8 2
3.08774 0.599919 11.6558 82 63 48
0.82959 0.783462 8.72378 24 22 6
3.29813 0.693402 11.1627 128 80 64
0.840138 0.832498 8.57855 110 105 84
3.05174 1.00355 10.9002 56 25 6
3.23848 1.00206 10.8651 142 107 94
3.24189 1.0767 10.8811 106 74 58
3.04706 1.19634 10.2153 144 120 104
1.73342 1.29923 9.64583 102 68 60
0.159336 1.50388 9.95332 102 56 29
-0.149874 1.60734 10.1775 64 28 18
2.57894 1.66461 10.3382 62 31 28
2.80224 2.08339 11.2577 110 84 80
2.2509 2.27677 10.7888 106 82 81
2.31148 2.28785 10.7904 43 22 18
1.5551 2.28819 10.4293 96 68 61
1.54914 2.55146 10.5782 116 90 84
2.60934 2.85208 11.8158 46 19 14
1.54882 3.54047 11.5016 78 27 22
1.52936 4.00468 11.8186 70 28 24
-2.51734 -2.98962 9.51083 100 104 63
-1.53876 -2.28057 9.97895 106 110 64
2.86685 -1.21382 10.4501 58 64 40
2.41185 -0.367485 13.2218 166 170 130
1.78852 -0.133569 11.426 55 46 36
2.24402 -0.25458 13.2305 110 83 58
1.99034 -0.170622 12.6079 28 11 2
-0.973101 -0.0409 12.4192 66 36 12
3.68524 -0.0456686 11.3996 162 124 113
3.55021 0.0174546 11.0356 184 146 136
2.89828 0.0502671 12.0822 91 74 40
-0.773964 0.190218 12.1135 56 24 2
-0.613028 0.194105 13.0412 30 20 10
-0.256841 0.264542 11.5348 20 13 4
1.32322 0.220063 11.3176 132 132 128
1.42663 0.558138 11.83 79 77 65
1.51336 0.637346 11.5359 17 12 8
3.03554 0.713609 11.1234 38 19 8
2.50015 0.871199 10.7008 53 48 35
2.92816 0.918213 10.818 52 23 14
2.66391 0.966829 10.3495 45 42 30
2.91326 0.966605 10.8734 104 82 72
2.98506 1.01151 10.8872 142 118 105
-0.366207 1.15086 10.3005 80 50 28
3.24382 1.07596 10.9145 99 66 49
2.49655 1.32596 10.076 96 82 70
3.12058 1.31363 9.61366 44 46 24
2.13369 1.37885 9.89268 146 107 88
2.60271 1.42278 9.83161 158 138 136
0.149407 1.50712 9.97523 102 57 30
1.60264 1.52838 10.0189 174 144 141
2.3817 1.79526 10.5049 16 8 4
2.3402 2.04762 10.7249 32 14 10
1.55257 2.29262 10.4663 107 80 73
3.65053 2.59428 9.56151 168 162 154
2.58871 3.21996 12.2664 84 48 41
-2.16411 -2.68897 9.67041 98 96 76
-1.781 -2.11737 9.73148 62 66 38
1.96683 -0.187026 12.7088 28 12 3
-0.823844 0.19945 12.3567 56 25 4
-0.867199 0.283567 12.2771 107 86 66
1.44997 0.549658 11.3946 40 38 28
3.40702 0.599711 11.0248 113 115 83
3.05521 0.69941 11.2872 44 26 15
-0.424629 0.984022 10.7265 44 28 20
1.58576 1.00178 9.94431 65 46 31
0.108537 1.62443 10.2928 158 113 90
0.832966 1.48249 8.13817 170 124 92
1.36559 1.63138 9.86244 85 38 15
-0.819969 1.92297 11.8757 124 102 76
2.39543 1.78057 10.4244 18 8 5
1.56777 2.03571 10.2221 100 75 70
2.28452 2.55387 11.0643 38 18 16
2.12752 2.81407 11.2461 57 28 22
3.7573 2.57991 9.25806 65 38 16
2.10508 3.22476 11.4349 98 70 70
1.48605 3.57835 11.5311 101 70 64
1.37404 3.92031 11.5576 72 26 13
1.78665 4.17931 12.4309 138 108 105
-0.90672 -3.78291 12.3001 132 138 94
-1.77791 -2.12297 9.74507 60 64 37
-1.32651 -2.12584 10.1286 87 90 50
-0.737015 -1.64664 10.6498 126 130 90
3.6629 -0.825014 12.0284 138 142 100
-2.84461 -0.584666 11.4835 120 102 52
3.68168 -0.385617 11.2386 164 130 109
-1.16672 -0.182275 11.7364 72 42 18
2.56341 -0.272888 13.0319 164 175 130
2.28126 -0.223231 13.0026 116 88 56
-0.97223 0.0719357 12.3502 144 132 92
0.707839 0.368929 9.09868 40 27 12
-0.795376 0.397068 10.5452 167 154 106
3.07543 0.449887 11.7657 32 12 2
-0.538761 0.713444 11.045 44 38 22
3.05628 0.699217 11.5597 40 22 9
3.23222 1.06658 10.8665 124 92 77
2.06133 1.38373 9.6317 162 122 103
-0.642206 1.6927 11.0009 161 147 122
1.17366 1.52882 8.10884 37 46 28
0.86203 1.64237 7.77999 93 58 40
1.5358 2.04485 10.3025 48 18 11
3.7422 2.52144 9.33391 170 160 151
3.57756 2.622 9.74926 138 119 107
2.77777 3.31674 12.9561 90 54 46
1.29369 4.07714 11.8798 147 100 84
-1.36011 -2.1588 10.189 130 132 85
-2.4204 -0.720654 11.1732 94 87 43
-1.43639 -0.47848 11.2779 154 154 112
2.41692 -0.565808 13.0825 152 152 118
2.03267 -0.30871 13.0646 132 122 96
-0.680623 0.282958 11.3977 154 131 110
-0.737518 0.402396 10.332 158 146 96
-1.04026 0.498247 10.2356 158 158 104
1.21091 0.477181 10.7782 62 68 53
1.33462 0.555038 10.827 118 118 110
-0.226126 0.722109 10.4791 18 8 4
-0.350244 1.00242 10.6498 84 74 64
1.71447 1.22974 9.52105 78 40 28
1.91621 1.42381 9.84991 160 127 116
1.62336 1.50413 9.84238 176 146 143
2.77417 1.85483 10.8624 75 49 44
3.6459 2.61633 9.80694 130 108 96
3.74483 2.56672 9.27201 73 48 32
2.17833 3.76438 12.4572 80 45 45
-2.51563 -2.99907 9.47859 154 158 108
4.9514 -2.80844 10.0864 114 117 72
-2.33206 -2.63762 9.53871 56 54 26
-0.68138 -1.61579 10.5608 104 106 62
0.625776 -1.21644 9.51851 124 128 83
2.5339 -0.872203 10.5998 101 104 92
1.35533 0.18491 11.3638 122 123 118
0.48775 0.490913 9.70152 89 92 78
-0.551576 0.886805 7.91414 80 87 65
3.19359 0.795238 11.0792 108 67 42
2.26411 2.25135 10.7295 130 110 107
2.19177 2.76144 11.1022 130 112 112
2.17581 2.87164 11.1607 118 94 94
2.0302 3.70087 11.8442 120 94 94
1.69504 4.05055 11.9392 113 76 73
1.7299 4.04989 11.9908 71 36 32
4.95425 -2.8111 10.1044 126 128 82
4.71928 -2.70041 10.3194 173 174 126
-0.68485 -1.62081 10.5907 110 111 66
3.59657 -0.691326 11.9331 68 48 16
3.0181 -0.549658 12.2008 162 168 126
-0.379046 -0.273407 11.6181 135 138 87
3.07667 0.298942 12.1247 96 70 49
0.495203 0.489857 9.64449 85 88 74
3.1241 0.626605 11.014 127 97 82
-0.543118 0.885873 7.877 78 84 61
1.55338 2.30826 10.4432 114 88 82
2.02654 3.69874 11.8552 114 88 86
1.86082 4.10094 12.1033 104 72 66
-2.39367 -2.76891 9.43797 104 104 84
3.39847 -0.813732 12.1502 164 174 132
-0.362513 -0.251787 11.7229 170 174 126
3.4354 0.603631 11.2885 128 122 96
3.03178 0.927918 11.0479 121 82 58
-0.0896096 1.48515 10.2693 126 80 57
1.22875 1.73357 7.83173 68 76 56
1.54984 2.30084 10.4633 114 87 82
1.53042 3.11646 11.0414 128 102 98
1.47537 3.22486 11.1252 50 12 4
1.44734 3.53051 11.3878 80 30 19
1.42161 3.94259 11.6859 88 38 28
1.35368 4.04466 11.8611 126 78 62
1.65863 4.05828 11.98 98 60 56
-2.0981 -2.41648 9.61444 54 56 34
3.58797 -0.682699 11.9252 54 34 9
2.16807 2.84497 11.1094 98 78 76
1.51463 3.17499 11.093 120 96 94
1.51489 3.53323 11.4104 98 61 56
1.81583 4.00834 11.881 128 94 90
1.34288 4.04175 11.8332 138 90 74
1.72938 4.05244 11.9551 72 38 32
1.88337 4.0999 12.0674 87 52 46
-1.88893 -4.57498 12.831 86 89 34
-2.18831 -2.65878 9.58126 109 108 88
-0.408759 -2.8518 11.63 96 103 68
-0.700251 -1.6073 10.542 89 93 54
2.87288 -0.414098 12.3391 158 169 124
1.29749 0.331389 11.3667 154 154 155
0.819436 0.574718 8.85339 101 101 76
-0.402557 1.00178 10.6583 46 30 22
2.90104 0.918355 11.7646 30 16 8
-0.336665 1.05796 10.5608 126 119 110
1.41848 3.57973 11.5239 70 22 14
1.32286 4.0544 11.8452 128 78 64
-0.92533 -1.81069 10.4884 128 128 84
3.52668 -0.527387 11.9163 64 50 20
1.59714 1.52217 9.91912 171 142 138
1.53833 2.5569 10.6053 102 76 71
1.50965 3.13924 11.0405 103 74 67
3.6816 -0.540698 11.6145 108 73 42
1.29475 0.272298 11.4351 134 134 134
1.61644 1.52885 9.85107 173 144 142
3.72873 -0.293085 11.4445 128 88 65
-0.935741 0.0588699 12.2331 148 133 96
3.20697 0.280535 11.2529 124 110 74
1.49102 0.64149 11.7208 14 11 3
1.52116 3.10481 11.0681 122 96 92
1.50416 3.52416 11.3776 126 96 94
1.79744 4.01788 11.9907 83 46 42
1.673 4.05121 11.964 103 66 64
3.01431 -0.0402111 12.3896 164 154 126
-0.710988 1.62588 11.1259 74 40 20
-0.896193 -1.78997 10.4357 113 114 70
-0.518013 1.44579 10.6363 128 88 60
-3.12655 -3.41496 9.25469 88 84 44
-1.94813 -2.59154 9.79415 107 104 58
2.04803 3.6159 11.7594 127 100 97
-2.31507 -2.63071 9.52463 56 54 27
-2.50476 -2.98388 9.4983 94 98 58
-0.750281 2.40306 12.1238 145 130 108
0.181341 -0.661563 10.7124 91 94 60
-2.09042 -2.41146 9.61825 54 56 32
-1.75239 -2.44335 9.94398 90 87 49
1.00989 1.57477 16.2902 104 94 79
2.34078 0.868165 6.50208 137 114 96
2.71715 0.990918 10.3075 24 20 10
-2.09374 -2.4243 9.53331 64 64 40
2.56468 1.05538 7.26809 140 116 92
-0.573632 1.2926 10.4158 148 106 73
1.51164 3.21041 11.0687 88 53 48
-2.75128 -0.627889 11.5321 120 105 52
-2.00732 -2.38521 9.60916 107 103 80
0.461083 1.41871 10.2777 48 16 6
-2.39525 -2.74949 9.44759 114 114 96
-1.8555 -2.29377 9.71529 100 100 76
0.981995 0.974818 8.40344 96 103 64
2.29615 1.82457 10.4315 30 8 5
1.55649 2.29695 10.4577 123 99 96
0.114055 3.88687 12.431 80 41 27
-1.55236 2.8243 6.87537 78 69 46
0.292784 2.26955 10.5733 112 70 52
1.20944 1.21062 8.0886 112 115 94
-1.55091 2.80264 6.8825 65 58 30
-1.56129 2.84419 6.88598 99 88 68
0.568434 -0.65747 10.851 162 162 115
2.98666 -0.0658003 12.341 148 140 116
-2.41404 -2.74814 9.35469 54 60 38
0.107376 5.16668 17.1432 64 24 16
1.54482 3.84656 11.21 74 30 20
3.60674 -0.718651 12.1768 72 56 24
3.80467 2.57016 9.25486 101 68 50
-0.540061 0.687224 10.8797 112 110 84
-0.89296 -0.0362563 12.7341 148 149 106
-0.465482 0.839805 11.2179 74 62 42
1.82725 -3.00856 11.984 148 154 108
-0.994232 -0.234728 12.3416 94 90 58
3.14329 0.510861 11.284 80 54 36
2.96024 0.900493 10.9148 55 26 11
2.96035 0.904867 10.9415 53 24 10
3.08458 0.560432 10.8545 80 58 40
-0.729385 1.45623 11.1729 82 46 22
-0.97074 -0.185268 12.3175 132 126 88
0.836589 1.49841 7.99797 163 116 84
0.661756 1.57989 8.20302 106 68 52
0.752817 1.58985 8.07497 68 32 19
1.83413 4.21705 12.9297 86 53 51
3.53588 -0.694021 12.1513 55 42 14
-0.991438 -0.17389 12.523 145 141 102
-2.64452 -3.10382 9.37438 93 94 48
-2.34708 -2.76416 9.37686 72 72 52
-0.640263 -3.464 11.9511 116 121 76
-1.95198 -2.59551 9.80162 94 94 52
-1.51822 -2.24422 10.0104 88 92 60
2.89912 -1.24526 10.5614 84 92 72
-0.0797213 -1.14345 10.8243 106 112 71
0.929885 -1.16195 11.1414 132 138 90
2.54533 -0.884051 10.6162 92 96 84
0.00132572 -0.804962 10.6231 84 88 58
-1.61925 -0.799514 11.385 94 94 42
0.17008 -0.670805 10.7572 84 88 56
-0.178652 -0.599393 10.4019 96 99 72
-0.134028 -0.551464 10.3218 57 60 28
0.703213 -0.441335 10.6323 64 64 15
2.52268 -0.530318 13.1397 64 64 29
-1.08666 -0.216444 10.7784 70 50 30
2.22871 -0.443095 13.1977 149 146 108
2.38997 -0.374013 13.3385 155 155 116
-0.211397 -0.152721 11.635 148 150 110
2.08771 -0.297357 13.1397 154 148 114
-1.01238 -0.00789279 10.6805 154 142 104
-1.03587 -0.00147878 10.633 80 56 28
-1.08579 -0.0756395 12.0372 150 126 86
2.24426 -0.275891 13.3305 124 100 74
1.58272 0.0900628 11.6253 58 54 46
-0.901462 0.26022 10.459 144 132 92
1.36788 0.244045 11.4313 69 76 65
-0.776412 0.887312 10.2638 86 45 23
3.01951 1.0423 10.8273 152 124 114
3.06988 1.07129 10.8448 78 45 18
-0.65081 1.24575 10.5186 172 130 104
3.11485 1.20081 10.729 142 114 104
1.23554 1.28118 10.1053 94 66 57
2.50547 1.31099 9.87731 92 78 62
2.33197 1.37242 10.2112 70 42 23
-0.71971 1.64599 11.1454 66 42 17
1.58765 1.82 10.093 86 53 48
2.56366 1.94401 10.8882 56 26 22
1.58193 2.02009 10.221 113 90 85
1.52216 2.81537 10.9056 104 64 56
1.60286 3.05077 10.8363 111 66 56
2.58818 3.63866 12.9815 87 51 43
2.3724 3.63554 12.3636 84 52 48
1.54187 3.51898 11.3917 68 23 16
2.04406 3.61262 11.7547 127 98 95
1.40303 4.10341 11.9278 81 36 21
1.89904 -5.08919 12.6716 82 90 38
-1.98315 -2.60245 9.74812 144 145 96
-1.95929 -2.59537 9.80553 85 85 49
2.55072 -0.0603918 2.73733 100 102 60
2.88123 -1.21451 10.4781 72 78 58
-0.121022 -1.16753 10.9653 106 111 69
2.55128 -0.89219 10.6021 62 68 52
0.374834 -0.799065 11.167 124 130 86
-2.44922 -0.71439 11.2602 54 44 10
3.69629 -0.589728 11.7653 117 84 54
2.47991 -0.580017 13.1096 141 139 111
-1.18051 -0.226955 11.4342 113 94 71
3.7317 -0.259523 11.3377 116 80 54
-0.623001 -0.00889022 10.6097 158 144 98
2.0492 -0.201179 13.0415 39 18 8
-0.460081 0.212708 11.9218 142 141 108
-0.71772 0.213713 12.598 142 138 105
-0.674874 0.279701 12.2222 45 28 10
3.10499 0.258435 12.4632 139 116 90
3.07652 0.314164 12.4803 56 28 10
1.48502 0.650682 11.6533 15 12 3
-0.711141 0.850102 11.1589 90 72 57
-0.79315 0.920506 10.3024 90 50 29
3.03533 1.01606 11.0229 74 44 27
-0.631222 1.21312 10.3922 156 120 92
1.25278 1.23101 10.0559 38 16 6
0.948757 1.36813 11.3574 23 6 2
1.26665 1.31212 10.2318 40 18 14
-0.715392 1.49024 11.0577 128 104 77
-0.712423 1.60565 11.0501 89 68 44
-0.671739 2.30842 11.8521 60 40 26
1.0784 1.94391 7.7594 62 48 38
1.54017 2.79325 10.7974 96 53 46
1.51924 3.10877 11.0622 106 76 72
2.10174 3.27651 11.5568 114 85 84
1.50722 3.52345 11.3672 111 74 64
1.39423 4.1022 11.9444 92 45 29
-2.65337 -3.10987 9.39278 126 126 76
-1.97081 -2.60212 9.72916 144 145 96
-1.93959 -2.58517 9.77921 90 90 51
-0.28789 -1.29621 10.7998 106 109 68
-0.363873 -0.740952 10.269 74 72 46
1.27116 -0.349112 10.2134 80 80 36
3.51146 -0.53134 11.8907 66 55 22
3.54233 -0.503102 11.8357 140 136 98
3.57582 -0.435458 11.6239 158 152 114
2.52635 -0.50897 12.8214 76 64 36
-0.202282 -0.155629 11.6158 160 164 120
-1.05142 0.00603853 10.6453 98 68 44
-1.09547 -0.0892696 12.0491 120 94 56
-1.13165 -0.0531593 12.1866 158 144 98
-0.95068 0.265307 12.0973 46 24 4
-0.844045 0.295831 12.2127 129 111 94
3.2043 0.569713 11.1957 86 42 5
-0.726221 0.873561 10.0907 95 58 36
1.59238 0.985248 10.0965 74 58 46
-0.6304 1.21579 10.3998 161 124 96
1.20343 1.21779 8.06211 116 123 99
-0.752343 1.50762 11.2744 76 40 15
-0.81068 1.63607 11.3732 87 61 38
1.34853 1.61969 9.8782 85 38 16
-0.732204 2.1379 11.9461 56 20 4
1.14781 1.65194 7.70876 102 110 90
1.5472 2.53927 10.6053 101 72 66
1.53513 2.78535 10.8028 94 51 44
1.80929 2.97879 11.0432 108 65 59
1.73771 2.99047 10.96 104 60 56
2.64846 3.14767 12.206 66 27 16
2.10454 3.25416 11.483 114 85 84
1.49544 3.53113 11.3984 114 80 72
-1.54631 2.80579 6.87689 62 55 32
1.50213 4.02673 11.9017 68 26 19
1.39081 4.10101 11.9529 88 42 26
-2.07777 -2.40459 9.58628 47 49 27
-2.01171 -2.40997 9.60509 78 80 55
3.26071 -1.53702 10.2905 66 72 47
2.89045 -1.23418 10.5045 78 84 63
2.7439 -1.07768 10.5217 59 68 49
-2.42769 -0.727132 11.2482 55 44 9
0.159769 -0.679821 10.7117 93 94 64
2.10469 -0.465264 10.7429 90 95 81
1.22198 -0.352718 10.4407 71 71 28
2.23457 -0.271574 13.3813 108 84 60
-0.771254 0.193442 12.1433 55 22 5
-0.427864 0.220716 11.7853 133 132 98
0.746041 0.317475 9.09632 64 66 44
1.33714 0.304906 11.329 132 132 132
-0.674133 0.789649 10.1046 128 92 78
-0.762306 0.978388 10.2288 162 142 118
2.94662 0.986605 10.8324 113 88 78
3.2561 1.09551 11.0234 92 58 42
-0.0548636 1.48462 10.145 84 38 16
2.36722 1.47765 10.1253 105 70 56
-0.695496 2.32685 11.9671 60 40 27
2.64612 2.77772 11.7463 98 70 70
1.73433 2.98727 10.9624 104 60 56
2.5743 3.22129 12.2146 60 29 24
1.51455 3.1446 11.0778 114 88 86
-2.32064 -2.8514 9.58951 105 104 70
-2.18473 -2.66189 9.57158 100 100 82
3.62895 -1.95734 9.45411 157 160 115
2.87921 -1.23427 10.5414 60 66 46
2.72362 -1.05229 10.4517 48 56 36
0.516603 -0.712498 10.9981 162 163 122
-2.86219 -0.580579 11.5179 96 74 26
1.70031 -0.0717652 10.8263 71 77 64
-1.06667 0.0608385 12.6665 146 134 96
3.08122 0.599948 11.6141 90 64 50
-0.707745 1.22103 10.6276 153 116 88
2.60987 1.42434 9.85363 153 133 132
-0.720563 2.23756 11.9393 136 114 89
3.56892 2.5678 9.63176 107 84 69
1.51055 3.15195 11.0761 98 70 66
1.47785 3.59213 11.4572 87 52 45
1.39745 3.67463 11.5917 52 18 12
1.85962 4.11595 12.133 90 58 50
-2.09793 -2.4242 9.56396 44 48 24
-1.31978 -2.13182 10.0983 112 113 66
2.61142 -0.019975 2.88054 144 149 110
3.66575 -0.821303 12.0719 154 158 114
3.57827 -0.727231 12.0373 50 34 8
2.09498 -0.247373 12.2876 129 120 94
2.57806 -0.246564 12.5074 148 160 117
-0.92687 0.28708 12.7164 124 116 91
-0.629341 1.21698 10.4106 146 109 82
1.18673 1.20142 8.11562 100 109 82
1.37424 1.626 9.82078 85 38 16
2.34914 2.03768 10.6877 33 14 10
1.54364 2.29326 10.4303 76 49 42
2.16555 2.82679 11.1375 78 56 54
2.79364 3.30915 12.9751 72 40 30
0.75043 3.75708 11.7664 87 48 40
1.55029 4.00152 11.7421 74 26 19
-2.51591 -2.98515 9.49664 104 110 66
-1.02302 -0.0407866 10.8017 150 148 102
3.05409 0.591217 11.8665 66 36 20
0.808443 0.825389 8.63206 72 66 58
-0.301848 1.00546 10.5502 71 61 53
2.92887 0.915102 11.2405 54 24 14
-0.532501 1.15683 10.7724 82 50 32
1.66155 1.3841 9.97194 39 12 6
0.17036 1.58189 9.81465 143 96 72
1.22873 1.47571 8.27488 166 125 98
1.49673 3.13182 11.0531 93 56 50
1.85842 4.10481 12.0941 92 60 54
3.67563 -0.592932 11.7679 134 100 69
-1.06409 0.883894 8.28517 150 142 113
1.82219 4.15589 12.2893 98 65 60
1.85573 -5.11413 12.7991 88 92 37
0.0303874 -2.66969 11.6252 108 118 70
-0.526418 0.670467 10.7229 69 64 48
3.45102 0.601492 11.715 94 100 67
-0.37679 1.17693 10.4441 66 36 19
2.17306 2.87161 11.1694 102 77 74
2.02954 3.69765 11.8328 124 98 96
2.2554 3.88372 12.4142 93 62 58
1.43523 3.9866 11.7412 69 26 14
1.87572 4.07569 12.196 112 78 72
1.73945 4.05661 11.9397 77 38 32
-1.10165 -1.9553 10.2638 94 98 58
2.08567 -0.456241 10.7746 84 88 72
0.771942 0.324869 9.04105 91 87 60
1.57125 2.0245 10.2447 110 87 83
1.45961 3.51891 11.3528 95 43 32
2.0319 3.687 11.847 124 98 96
-1.56068 2.81875 6.88986 70 63 40
1.46838 3.96697 11.7737 118 79 72
-2.49131 -2.98267 9.4945 110 114 66
-2.28913 -2.62198 9.49494 53 53 28
4.94854 -2.69782 10.2216 55 60 28
-0.864214 -1.77492 10.3723 114 116 72
2.36432 1.79043 10.499 32 16 15
3.58911 1.84283 9.26484 122 121 102
2.36199 3.65578 12.4083 86 52 51
1.06651 -0.0907433 10.4897 70 75 44
2.03697 -0.194625 13.0489 30 12 6
1.35791 1.6175 9.79377 74 27 8
2.14993 2.79656 11.1994 80 56 52
2.16911 2.85742 11.2238 116 97 95
1.47545 3.98029 11.7837 120 84 78
3.55203 -0.474778 11.7005 150 147 111
-0.888562 0.844264 10.2181 138 132 100
1.55154 2.2912 10.4437 89 62 56
1.55583 2.55277 10.5249 108 78 72
2.56537 3.26094 12.5571 56 24 18
2.0997 3.24546 11.4855 74 40 39
-2.31554 -2.63988 9.56249 47 49 25
4.89228 -2.71904 10.1863 50 50 20
3.52702 -0.481923 11.7422 142 141 104
-0.796928 0.974662 10.3021 162 144 120
-2.39329 -2.90647 9.2759 60 69 32
3.23194 0.235238 11.2135 98 92 60
1.16214 0.575548 11.7706 102 99 94
1.61845 1.51368 9.82883 159 128 124
3.71903 2.42499 8.54203 86 60 43
-1.72203 -2.42811 9.89629 92 90 52
1.73218 4.05776 12.025 66 26 20
-2.14 -2.43371 9.6633 46 50 26
-2.11934 -2.43797 9.56465 50 54 28
-1.7847 -2.19952 9.72542 83 82 56
2.28192 2.54318 10.8561 32 14 14
-1.96077 -2.6007 9.80364 121 122 76
-1.96833 -2.58976 9.77813 106 106 68
1.86736 1.0962 7.47664 81 63 42
-1.21143 -0.147296 11.168 76 56 27
-2.42477 -2.75903 9.40684 46 50 27
0.166632 -2.48968 11.6523 120 125 87
-2.15415 -2.73431 9.69563 110 112 63
1.3041 0.696602 8.00353 133 129 96
-0.880183 -1.78199 10.4076 112 114 68
3.81053 -1.28039 11.9894 76 68 27
1.23662 1.45671 8.29632 154 113 90
3.81491 -1.2752 11.9666 92 86 44
3.86478 -1.19738 11.928 98 100 62
-1.73087 -2.43748 9.88487 110 108 62
-0.399403 -0.779228 10.3046 105 102 76
-0.598777 1.05695 11.4325 28 16 3
1.19157 1.22911 8.13478 112 117 94
2.22591 2.54862 10.9186 106 77 72
1.81741 2.98496 11.0359 120 76 68
1.517 3.10937 11.0597 122 96 95
1.4577 3.5258 11.3756 72 28 21
1.47401 3.95241 11.7557 120 84 76
1.36343 4.06865 11.911 132 82 65
1.41489 -1.74084 9.85169 115 124 72
1.14277 -0.0425712 10.2586 54 56 28
-2.46353 -0.727291 11.3046 63 54 20
1.42182 3.98083 11.7725 69 24 14
1.59655 0.987645 10.0582 74 58 45
1.16701 1.41725 7.9688 90 96 71
2.16691 2.83894 11.1732 84 64 62
0.800789 3.73078 11.6392 102 72 68
1.80482 4.11952 12.2814 136 102 97
-0.909681 -0.0907031 10.7426 124 104 65
1.53404 0.637953 11.4925 15 12 6
1.48768 1.45304 10.0299 46 14 3
1.53159 2.2861 10.4377 66 38 33
1.56859 2.01117 10.2293 96 72 68
0.709941 2.8193 6.92975 123 114 98
1.4428 -1.70565 9.65446 109 117 64
-1.10908 0.0663817 12.7631 118 109 74
1.00266 -1.03564 10.9265 151 154 104
-0.746488 1.68577 11.3641 136 116 90
-0.888851 1.94596 12.1345 110 88 64
2.16766 2.87351 11.1773 107 86 84
2.25177 3.91618 12.5997 88 60 56
1.05192 -0.998853 10.6182 154 158 106
-0.843787 -0.00545465 11.9098 58 38 12
3.25463 1.41236 11.4972 82 76 58
1.00156 -1.06831 10.9456 162 166 115
3.08977 0.463948 11.2042 40 18 5
-0.679824 1.37863 10.6921 150 122 94
-0.706475 2.24267 11.9045 130 110 84
1.38928 -1.72947 9.86746 116 124 70
-0.687284 1.47815 11.0016 88 56 30
-0.789685 1.60358 11.2789 104 82 58
2.91839 2.58089 12.3911 76 46 36
0.744392 2.81417 6.79704 98 91 70
0.614813 -0.633338 10.3968 160 164 115
-0.595742 -0.0484322 11.0035 106 98 68
3.05348 0.817109 11.2828 126 84 56
2.48939 1.32588 9.96999 88 72 55
-0.750334 1.6032 11.138 127 108 84
-0.65374 2.3206 11.8627 52 26 10
2.03216 3.64868 11.6369 98 69 65
-2.38591 -2.76356 9.30295 50 52 30
1.33529 0.557813 11.0637 109 110 102
-0.355601 0.827515 8.53626 134 133 101
3.23764 1.34297 11.6013 126 113 100
2.48951 1.32039 9.95808 74 62 44
2.97627 2.42287 12.3142 84 52 39
-2.10395 -2.58643 8.71906 48 56 28
-0.602415 -2.8754 10.7544 135 136 90
0.193879 -1.85739 7.96152 80 88 39
1.06473 -1.07737 10.5157 164 169 116
-3.03961 -0.669046 11.9255 130 118 64
-1.00265 5.98598e-05 10.7411 152 154 104
1.41638 0.560051 11.9581 42 39 30
-0.34816 0.828474 8.50675 134 133 101
-0.30429 0.904018 10.1234 30 18 6
2.9533 0.874373 11.1328 44 18 10
-0.394998 1.13368 10.3157 82 54 36
1.59898 1.0229 9.90669 64 44 26
2.86809 1.03171 10.7866 60 40 22
-2.15902 -2.66993 9.64046 48 52 30
-2.1772 -2.64851 9.58406 98 100 80
3.4433 -1.47565 6.88699 143 146 98
-1.55628 -2.11058 9.88273 70 72 51
-1.32773 -2.13441 10.1619 83 85 44
3.6334 -1.8661 10.2559 87 94 69
3.4611 -1.71432 10.2826 78 86 62
0.260327 -1.82557 11.1156 96 106 66
-0.225307 -0.982347 10.5429 86 88 64
2.72041 -1.05447 10.5451 86 92 76
3.5855 -0.729045 12.1005 50 35 4
1.37862 -0.29861 9.8116 98 97 64
3.11065 -0.587233 12.0882 131 142 101
-0.573322 -0.355955 11.6099 110 114 72
3.06322 -0.567991 12.1064 96 108 67
3.05748 -0.531279 12.0187 112 124 82
2.94829 -0.469583 12.1224 140 154 114
1.89562 -0.284256 10.8799 94 92 76
1.91314 -0.518332 14.8477 76 44 20
-1.06093 -0.00255725 10.6853 78 56 30
2.14011 -0.329809 13.1169 157 140 112
3.71209 -0.0880194 11.2538 123 90 74
0.890348 0.274176 11.1142 32 24 4
3.61212 0.113977 11.1641 129 92 76
1.01552 0.376275 11.1101 60 56 36
0.324326 0.499981 9.39725 76 80 61
1.13378 0.533464 10.8025 74 77 62
-0.904185 0.691087 11.6215 112 96 84
-0.969886 0.689568 12.1841 108 104 81
1.21689 0.644344 8.67407 112 122 93
3.44115 0.600408 11.7775 94 102 64
1.21105 0.9039 8.4204 100 114 86
2.94799 0.99509 10.8458 134 110 97
2.88875 1.01953 10.8579 56 28 16
3.01322 1.0375 10.6114 65 42 26
1.15291 1.2953 10.0812 30 6 0
1.1651 1.23912 8.1816 110 118 92
3.11366 1.20172 10.7789 126 98 90
2.36401 1.31745 10.1413 118 99 88
1.20665 1.3369 8.51081 131 97 70
0.896178 1.86854 10.0585 160 114 103
2.11794 2.19363 10.4928 116 83 77
2.65025 2.80021 11.7964 124 98 96
1.82 2.97394 10.9919 118 71 65
2.56125 3.16266 11.9995 126 97 94
3.75966 2.44034 8.76362 157 140 131
1.53372 3.15492 11.162 63 26 22
0.728245 3.29272 11.3359 130 95 86
2.52096 3.19323 11.9216 58 27 25
2.59263 3.21534 12.0333 46 16 10
0.718535 3.37418 11.4405 114 88 84
1.49362 3.22693 11.098 54 14 6
2.57827 3.63505 13.0255 90 53 46
-1.61362 2.88666 6.94869 104 90 75
2.4273 3.60111 12.3487 126 96 94
1.51024 3.51847 11.3584 125 95 92
0.825729 3.74836 11.7413 56 16 12
1.51079 4.06181 11.8282 80 36 24
-0.778474 -3.60401 12.0482 121 126 82
4.67101 -2.64644 10.2014 94 96 51
