ply
format ascii 1.0
element vertex 1262
property float x
property float y
property float z
property uchar red
property uchar green
property uchar blue
end_header
0.0840589 -0.552756 6.8506 186 192 154
-0.527711 -0.669704 6.43076 132 128 108
-0.521954 -0.660059 6.41976 126 124 102
-0.367548 -0.609869 6.27793 154 156 120
-0.353047 -0.599996 6.2485 178 178 143
-0.587159 -0.690923 6.61654 148 146 123
-0.375589 -0.60589 6.33218 170 170 134
-0.572386 -0.663126 6.56042 178 174 152
-0.153336 -0.564925 6.52746 194 195 153
-0.551543 -0.656811 6.47094 162 162 130
0.0984477 -0.483367 6.29075 132 136 98
-0.381921 -0.600184 6.37765 156 156 123
0.0820904 -0.492259 6.39459 154 160 120
-0.144204 -0.550444 6.46554 183 182 142
0.0235372 -0.477739 6.04026 122 130 92
0.284375 -0.399837 5.80816 210 212 172
-0.167218 -0.55307 6.55426 193 193 152
-0.326581 -0.565734 6.26214 174 176 136
-0.15445 -0.533151 6.28516 128 133 89
-0.186588 -0.547233 6.47446 174 180 135
-0.675884 -0.685882 6.92143 148 146 122
-0.236144 -0.552499 6.46335 159 156 104
0.289592 -0.39418 5.93667 90 81 34
0.270711 -0.404415 6.07046 148 150 102
-0.221702 -0.544005 6.52015 178 178 130
0.303723 -0.393834 6.10452 172 170 128
-0.430274 -0.576913 6.22426 207 209 172
-0.100848 -0.508465 6.5538 146 149 112
0.0360434 -0.466159 6.34512 216 223 184
0.0647832 -0.447645 6.12864 149 155 115
-0.0140049 -0.505546 6.88318 150 154 119
-0.594677 -0.632588 6.7428 142 142 118
-0.334925 -0.549837 6.35692 140 140 106
-0.389924 -0.558509 6.45858 122 123 94
-0.270366 -0.564711 6.87245 160 167 121
-0.147673 -0.5024 6.33715 230 236 194
-0.29324 -0.52617 6.25715 150 152 113
-0.385607 -0.562168 6.47941 120 120 90
-0.549226 -0.602759 6.57381 168 168 140
-0.398505 -0.553178 6.44684 125 126 96
-0.387137 -0.553673 6.45362 144 143 114
0.00279429 -0.453299 6.13335 156 164 129
-0.302724 -0.526116 6.29881 131 133 95
0.278465 -0.385087 5.94601 145 141 103
-0.175275 -0.498286 6.44013 130 137 83
-0.170159 -0.49735 6.4466 200 200 152
0.273104 -0.381541 6.15424 154 150 123
-0.542308 -0.591439 6.65542 132 132 108
-0.461517 -0.608573 7.60801 175 176 130
-0.640541 -0.624562 6.95512 124 122 99
0.0465655 -0.446842 6.59988 116 120 97
-0.707126 -0.636059 7.11953 144 142 116
0.0130948 -0.436712 6.25086 156 162 125
0.0139377 -0.436286 6.21975 149 154 118
0.0177849 -0.426051 6.13647 178 182 146
-0.435078 -0.51672 5.65567 190 188 139
-0.53487 -0.546836 5.87017 174 172 126
-0.371128 -0.50132 5.64939 157 158 112
-0.596345 -0.590056 6.83879 166 165 140
-0.39523 -0.52401 6.49483 144 142 115
-0.036158 -0.441992 6.4059 218 228 188
0.239332 -0.358867 5.68609 133 141 102
-0.458908 -0.576529 7.59941 156 158 108
-0.527704 -0.562274 6.62302 126 124 98
-0.258317 -0.486276 6.27132 134 138 98
-0.269962 -0.485607 6.33206 146 150 108
-0.023258 -0.430717 6.24445 188 200 168
-0.48653 -0.523926 5.71513 207 203 154
-0.396964 -0.500011 5.62448 112 110 78
-0.181177 -0.479025 6.84859 154 154 132
-0.606743 -0.553642 6.00272 120 117 86
-0.0299406 -0.425781 6.27416 156 164 134
0.230624 -0.361755 5.78196 218 225 190
-0.277256 -0.489819 6.81902 162 161 114
-0.509833 -0.520789 5.75787 100 88 58
-0.356383 -0.483629 5.77473 138 139 97
-0.0165463 -0.416688 6.1911 178 185 152
0.222632 -0.349917 5.71078 201 206 168
-0.484145 -0.526297 6.61574 126 126 102
-0.42506 -0.497675 5.63405 125 122 80
-0.497726 -0.515986 5.78263 144 142 100
-0.521754 -0.522896 5.83754 124 120 84
0.213239 -0.348065 5.64368 178 173 129
-0.0516008 -0.427065 6.39299 94 103 78
0.275462 -0.348642 5.84942 206 201 165
-0.417809 -0.492437 5.55019 170 154 98
-0.475569 -0.508735 5.66868 160 150 100
-0.373193 -0.477732 5.6037 138 138 94
-0.388578 -0.481132 5.48588 170 148 94
-0.294412 -0.46863 6.45355 115 120 79
-0.319161 -0.484937 6.6387 219 226 186
-0.187216 -0.443614 6.15062 231 232 196
-0.182723 -0.442686 6.15559 122 124 77
0.271287 -0.335945 5.78266 209 199 166
-0.523361 -0.508984 5.68677 212 204 148
-0.18836 -0.43797 6.14325 121 123 84
-0.308037 -0.468493 6.62689 172 174 131
-0.156529 -0.427808 6.06263 114 116 67
-0.343662 -0.465444 5.84018 130 132 90
-0.343888 -0.473337 6.53187 107 110 76
0.271457 -0.329465 5.94136 194 180 144
-0.127812 -0.412425 5.57834 173 178 144
-0.377079 -0.465235 5.74172 140 140 108
-0.407856 -0.47119 6.66358 122 124 94
-0.2192 -0.446951 6.97287 130 134 106
0.14988 -0.347625 6.56849 102 98 62
-0.36917 -0.459859 5.78753 97 94 66
-0.286551 -0.441538 6.56082 105 106 55
-0.279178 -0.437386 6.60473 134 132 76
-0.311007 -0.448582 7.09715 150 149 98
-0.0648378 -0.391039 6.2241 104 110 76
0.187674 -0.333259 5.78873 108 102 68
-0.335994 -0.446784 5.90097 130 132 93
0.232049 -0.323356 5.97514 117 118 82
-0.0822035 -0.389809 5.39131 226 232 190
-0.0998125 -0.393432 5.45419 153 157 120
-0.412397 -0.460775 6.68619 110 114 84
-0.271651 -0.43126 6.33695 109 112 76
-0.355079 -0.443327 6.67119 116 120 82
-0.261783 -0.426955 6.34635 109 112 72
0.165043 -0.333795 5.78314 163 158 122
0.246768 -0.319381 5.91553 170 158 126
-0.469812 -0.473063 6.01671 127 116 88
0.24851 -0.306995 6.01325 178 168 132
-0.480122 -0.466843 6.07652 94 86 61
-0.422521 -0.442945 6.7585 109 112 84
-0.328361 -0.429099 6.59798 120 121 80
-0.311556 -0.424513 6.56051 124 124 82
-0.397234 -0.445395 5.8157 216 218 173
-0.410689 -0.4422 6.75531 110 114 84
-0.123837 -0.390124 5.55349 149 151 116
0.256518 -0.309313 6.03088 154 133 103
-0.323999 -0.427588 5.93563 127 130 90
-0.111081 -0.385769 5.46219 154 156 116
-0.35251 -0.41059 7.85589 115 118 88
0.253621 -0.296106 6.18592 162 132 102
-0.231055 -0.391055 7.0009 143 146 110
0.172149 -0.316955 5.51761 186 188 150
0.25492 -0.2996 6.04747 150 131 98
-0.246655 -0.413645 5.062 202 197 134
-0.0693742 -0.370904 5.43817 200 194 154
0.166517 -0.31754 5.60713 154 150 112
-0.175175 -0.380674 6.02558 116 120 85
0.112815 -0.327732 5.57987 178 164 134
-0.327227 -0.388579 6.99409 152 154 111
0.157271 -0.310502 5.65365 103 102 66
-0.412537 -0.424348 6.09905 95 96 74
-0.0688399 -0.362217 5.46217 112 90 67
0.194835 -0.296284 5.89953 120 126 93
0.284351 -0.274932 6.17766 176 142 118
-0.528093 -0.443068 6.21219 104 81 56
-0.31448 -0.392847 6.40782 134 138 115
-0.410019 -0.418099 6.01234 168 162 138
-0.310935 -0.356847 7.75818 124 126 112
-0.0942127 -0.360129 5.54927 122 101 77
0.285797 -0.272559 5.9971 215 206 176
-0.443049 -0.43291 5.99495 164 132 107
-0.188646 -0.364305 5.91874 70 64 43
-0.839015 -0.480575 6.88343 164 126 96
-0.360294 -0.405565 5.91299 224 224 189
-0.123224 -0.357934 5.64482 86 60 40
-0.310238 -0.3744 6.46484 128 133 109
0.131221 -0.302882 5.63787 211 212 174
-0.259069 -0.377585 5.84945 99 100 78
-0.513094 -0.429169 6.09404 220 198 156
-0.185258 -0.356561 5.92348 56 47 26
0.1162 -0.299312 5.71572 146 127 92
0.131849 -0.299453 5.62148 135 124 88
0.111576 -0.295211 5.82341 110 108 73
-0.44919 -0.399969 6.27884 92 94 71
0.170287 -0.279075 5.9584 150 155 121
-0.213174 -0.373452 5.57066 221 226 184
-0.319719 -0.384229 5.88257 132 124 92
-0.442215 -0.371964 7.00033 150 154 130
-0.436095 -0.36761 7.00715 128 132 106
-0.383936 -0.389587 6.11169 97 98 75
0.129957 -0.284318 5.87517 75 74 46
0.267132 -0.235133 6.42586 212 195 171
-0.73927 -0.436762 6.61601 178 132 102
-0.251185 -0.367333 5.72622 156 146 120
0.0893758 -0.289718 5.81487 68 42 18
0.108486 -0.294345 5.74386 88 78 49
0.265248 -0.230065 6.41029 202 181 156
-0.243902 -0.364479 5.65359 172 154 115
-0.238485 -0.296065 7.35263 128 128 118
-0.620574 -0.414443 6.40696 187 152 126
-0.259883 -0.367051 5.65536 120 84 57
-0.623905 -0.412506 6.36042 182 135 106
-0.453732 -0.40633 6.0063 204 160 137
-0.332111 -0.376503 5.77028 220 198 162
-0.250855 -0.361459 5.71798 146 128 98
0.238895 -0.241288 6.21908 180 154 124
-0.230035 -0.34109 5.94378 72 46 28
-0.272037 -0.36499 5.68515 187 164 132
-0.254728 -0.361763 5.65183 158 122 89
-0.32903 -0.36224 5.9628 182 174 156
0.150766 -0.2657 5.91211 99 93 60
-0.129521 -0.328306 5.76487 77 64 42
0.0776464 -0.282824 5.86097 93 74 50
0.252428 -0.235026 6.15016 236 204 196
0.156747 -0.267065 5.84354 155 146 108
-0.304145 -0.361702 5.74674 153 128 92
-0.356921 -0.360012 6.09034 96 95 74
-0.125189 -0.324024 5.74431 74 56 38
0.0751547 -0.278211 5.85204 100 93 66
0.228105 -0.219205 6.55456 191 178 144
0.154069 -0.251309 5.84192 148 127 90
-0.306328 -0.355889 5.77355 154 120 84
-0.273502 -0.352769 5.70495 168 127 96
-0.197616 -0.342934 5.58348 124 106 78
0.050606 -0.272312 5.97986 88 72 50
0.135121 -0.261126 5.89602 72 64 40
-0.371578 -0.363607 5.87455 136 97 67
0.18605 -0.258997 5.68886 157 150 116
-0.318372 -0.342291 5.9899 84 77 57
0.185691 -0.253894 5.75245 182 173 138
-0.259085 -0.3485 5.66861 136 96 66
0.139151 -0.254007 5.88058 80 65 38
0.193905 -0.255394 5.67952 209 206 170
0.243846 -0.226168 6.16427 176 138 120
-0.250156 -0.321174 6.07275 96 80 62
-0.259488 -0.341461 5.71835 142 124 93
0.216383 -0.193198 6.62368 180 136 116
-0.511421 -0.363409 6.20595 112 80 52
-0.260122 -0.344911 5.67153 142 108 82
0.234564 -0.207629 6.28991 154 108 90
-0.0850753 -0.311907 5.57007 100 82 63
0.0579772 -0.268707 5.80877 76 68 46
-0.251822 -0.337409 5.65327 192 172 154
-0.154501 -0.292584 6.07172 122 121 96
0.0730387 -0.275192 5.68773 96 84 64
0.170385 -0.242846 5.73654 200 182 168
0.172353 -0.241148 5.79422 162 136 116
0.177196 -0.239655 5.76736 128 98 74
0.198252 -0.234095 5.74592 198 190 155
0.111361 -0.240433 5.88916 87 76 56
-0.197079 -0.283598 6.15316 131 132 110
0.183605 -0.235758 5.72297 102 70 36
-0.413273 -0.279881 6.76909 52 46 27
0.0969707 -0.231283 5.9871 58 38 22
-0.284542 -0.273606 6.4414 136 138 118
-0.266482 -0.277212 6.31914 108 108 91
-0.297553 -0.273921 6.45485 126 128 110
0.163403 -0.211117 6.04702 142 112 82
-0.416632 -0.271712 6.74638 122 121 106
0.0361731 -0.255986 5.75104 80 72 50
0.0277214 -0.252485 5.82377 84 82 58
0.0389193 -0.242877 5.94009 84 85 58
0.0244443 -0.254133 5.78217 41 24 9
0.0288854 -0.235886 5.98594 70 72 46
0.171966 -0.154809 6.65124 192 179 155
0.165502 -0.191191 6.16578 169 138 102
0.183062 -0.203146 5.99797 174 148 116
0.1971 -0.188579 6.13991 167 146 122
-0.563097 -0.257979 6.94967 126 128 110
0.178082 -0.207874 5.86238 144 116 87
0.1942 -0.194796 5.99205 192 165 144
-0.302344 -0.14179 7.57073 68 63 42
-0.0034652 -0.194821 6.21516 73 69 50
0.0764564 -0.218556 5.83418 42 28 14
0.197381 -0.182696 6.00805 138 93 70
-0.632137 -0.199758 7.59797 113 117 112
-0.541639 -0.200411 7.40595 130 132 125
0.0339063 -0.196125 6.11889 71 62 44
0.10893 -0.206829 5.83713 52 26 17
-0.555915 -0.17207 7.69135 130 133 114
0.0113941 -0.208738 6.04236 88 87 66
0.167225 -0.178932 6.12561 118 89 66
0.161683 -0.172221 6.06791 158 138 121
0.158388 -0.156611 6.25811 234 221 210
0.156371 -0.178168 5.97618 120 91 70
0.101355 -0.196159 5.82568 52 28 18
0.17107 -0.162849 6.10654 98 74 54
0.0324582 -0.174211 6.19283 52 28 19
-0.822994 -0.218384 7.65721 122 124 110
0.177689 -0.160453 6.08845 150 114 90
-0.0778 -0.186912 6.21063 92 92 70
0.149413 -0.128468 6.38193 155 126 102
0.0244402 -0.187111 5.99442 31 24 10
0.173299 -0.118547 6.37808 221 183 171
-0.00303335 -0.177022 6.07314 77 76 55
0.156303 -0.147662 6.0977 100 70 41
-0.0402793 -0.15546 6.33641 76 75 54
0.0520212 -0.172842 5.96901 93 80 60
0.136072 -0.127999 6.24945 88 56 38
0.169513 -0.137315 6.09509 218 180 166
0.0333874 -0.150979 6.18566 70 54 37
0.188086 -0.11828 6.22416 213 170 156
-0.398216 -0.177073 6.669 56 52 36
-0.219608 -0.197888 6.0859 42 36 24
0.156308 -0.123555 6.15126 196 154 134
-0.187714 -0.216682 5.85518 28 18 12
-0.173598 -0.215948 5.82924 43 34 27
-0.154041 -0.217782 5.78983 35 28 20
0.121279 -0.105234 6.32884 136 98 84
0.139291 -0.0888181 6.39271 124 82 61
-0.314736 -0.208876 6.07169 36 26 18
-0.0362017 -0.0242817 7.16657 83 74 56
-0.306823 -0.19937 6.11666 44 33 24
0.0206877 0.0285834 7.46914 114 78 64
0.130891 -0.0684951 6.48285 146 107 86
-0.206717 -0.166633 6.16304 32 30 20
-0.319631 -0.187679 6.15683 48 37 30
0.0920829 -0.0169697 6.82835 166 127 104
-0.115763 -0.206402 5.6977 32 24 17
0.0992213 -0.0451217 6.62492 127 102 78
-0.239741 -0.171457 6.12427 27 19 14
-0.308171 -0.128197 6.55917 31 27 16
0.179793 -0.0547714 6.43985 204 164 145
0.008828 0.0364767 7.35387 128 120 98
0.0152548 0.0407873 7.37793 131 116 98
0.0183481 0.0712125 7.59966 154 128 106
-0.421135 -0.173876 6.31444 90 57 42
0.17595 -0.0472018 6.45314 188 146 128
-0.578657 -0.0249729 7.6007 27 21 14
-0.0790908 -0.0208081 6.91591 77 78 56
0.129054 0.0298878 6.93311 211 182 164
-0.179868 -0.179767 5.86921 54 40 33
0.148424 0.00251781 6.65527 213 180 167
0.0927732 -0.0175259 6.69277 141 120 96
0.132243 -0.01187 6.59611 215 190 172
-0.527825 -0.144862 6.53468 85 46 32
-0.648087 -0.139786 6.67109 122 90 67
-0.661098 -0.0552853 7.2051 74 42 32
-0.415208 -0.0903917 6.62307 54 35 28
-0.643642 -0.144867 6.64541 191 149 124
-0.4864 -0.076375 6.78304 74 46 33
-0.626346 -0.124195 6.64909 184 146 125
-0.373067 -0.104778 6.44504 88 52 42
-0.6423 -0.1458 6.52682 172 127 98
-0.155569 0.108126 7.49627 42 20 10
-0.0877279 0.0707295 7.20182 56 49 32
-0.605315 -0.0965906 6.74376 122 86 69
-0.316855 0.131512 7.74894 126 88 72
-0.135835 0.104943 7.39691 58 37 24
-0.712209 -0.112338 6.70366 182 133 100
-0.107463 0.144278 7.55127 62 55 32
-0.640455 -0.107787 6.64367 118 76 52
-0.6386 -0.104292 6.66537 145 104 80
-0.778625 -0.0884833 6.81328 191 144 122
-1.0519 0.0329588 7.80663 159 114 83
0.0177129 0.0863039 6.99723 81 80 54
0.092791 -0.00605377 6.36516 80 78 54
-0.73118 -0.0909995 6.74261 162 114 86
-0.717171 -0.0778009 6.71797 184 140 112
-0.0901833 0.109322 7.21473 92 66 46
-0.690994 -0.075342 6.67541 160 116 90
-0.731684 -0.0606097 6.80497 175 134 106
-0.849884 -0.00166907 7.18814 175 134 110
-0.914185 -0.01232 7.2028 140 94 72
-0.647555 -0.0815471 6.49376 114 72 54
-0.585911 -0.077116 6.54858 178 136 115
0.0184137 0.16609 7.29127 100 93 70
-0.717707 -0.0656808 6.63577 126 80 60
-0.608687 -0.0705021 6.50882 136 90 70
-0.639418 -0.0759601 6.47733 110 68 51
-0.871633 0.0495832 7.42068 168 127 106
0.114672 -0.0115731 6.15078 146 118 114
-0.546322 -0.0808195 6.38284 125 86 68
-0.769671 0.0175403 7.18796 163 123 97
0.128331 -0.00328347 6.18303 125 122 103
-0.736816 -0.0539254 6.65168 134 98 76
-0.436296 -0.123922 6.01382 97 57 39
-0.87849 0.0850219 7.60461 171 130 106
-0.804613 0.0678774 7.41845 160 118 95
-0.676661 -0.0135162 6.75648 118 75 60
-0.702432 0.0041155 6.8562 130 86 72
-0.522232 -0.0834022 6.22574 114 70 50
-0.562008 -0.0712005 6.33751 132 90 70
-0.402921 -0.128094 5.91686 164 132 114
-0.592617 -0.0524362 6.42491 124 82 62
-0.448567 -0.0906877 6.11262 110 70 52
-0.606472 -0.0250787 6.61571 87 50 33
-0.574858 -0.0257811 6.55037 74 34 19
0.141098 0.0481552 6.35535 121 118 100
-0.420661 -0.113533 5.9717 126 88 70
-0.572539 -0.0581114 6.29859 108 66 48
-0.37204 -0.11732 5.8651 88 51 32
-0.45949 -0.0734199 6.18491 99 66 50
-0.808132 0.0983416 7.39756 148 106 88
-0.361885 -0.128528 5.78916 194 180 156
-0.641597 0.0853113 7.07015 108 60 47
0.0919293 0.0487273 6.25814 206 188 182
-0.419774 -0.0893996 5.99577 114 74 51
-0.378269 -0.116586 5.82398 207 194 168
-0.398022 -0.0870327 5.89162 172 132 109
0.0880666 0.0527922 6.22334 168 146 142
-0.303777 -0.124786 5.64541 207 200 174
-0.399652 -0.0905147 5.88037 135 90 63
-0.370564 -0.0919064 5.8408 140 95 72
-0.0821084 0.166125 6.87757 76 48 44
0.111033 0.0170237 6.0063 183 164 157
-0.653182 0.0977179 6.89506 103 60 48
-0.544197 0.00330768 6.35804 137 98 79
-0.382843 -0.0681601 5.89953 58 20 6
-0.677267 0.122872 6.97738 106 64 52
0.106784 0.00756569 5.89145 206 190 182
-0.434976 -0.0423116 6.03555 124 76 59
-0.412897 -0.0682083 5.92092 163 132 110
-0.35358 -0.0718424 5.81654 130 80 59
-0.505791 0.0149413 6.34575 104 62 45
-0.682949 0.219154 7.37933 87 52 48
-0.395438 -0.0531093 5.95085 110 62 44
-0.518912 0.0291522 6.40123 76 38 24
0.0534378 0.0784742 6.1874 133 98 95
-0.383729 -0.0424067 5.95467 130 88 67
-0.381875 -0.0467265 5.91503 126 78 59
-0.0891198 0.192299 6.80089 160 128 126
-0.550693 0.0689208 6.55209 79 39 27
-0.490475 0.0139457 6.24032 116 78 54
-0.199681 -0.0565186 5.74714 84 43 30
-0.382497 -0.0483384 5.89857 108 65 47
-0.369895 -0.0623948 5.82491 150 134 112
-0.355401 -0.0659351 5.80488 137 115 98
-0.819601 0.170499 7.0743 120 84 62
-0.616078 0.114282 6.75233 74 31 18
-0.367989 -0.0559281 5.84302 194 180 159
-0.58432 0.115931 6.70404 83 40 26
-0.335124 -0.0633619 5.77841 176 154 144
-0.440356 0.00796497 6.14867 116 79 59
-0.585642 0.139495 6.78042 114 73 61
-0.551242 0.127787 6.72422 88 48 34
-0.551892 0.128818 6.75203 76 37 24
-0.357146 -0.0501227 5.82056 134 115 97
-0.321906 -0.0491398 5.79533 125 79 59
-0.315363 -0.0476696 5.7911 122 78 56
-0.32379 -0.0416312 5.8258 134 92 69
-0.435619 0.0257672 6.16426 114 76 60
-0.400314 0.0129095 6.0848 128 90 77
-0.653372 0.326779 7.52245 160 124 120
0.102244 0.00984881 5.77561 146 128 119
-0.658622 0.181244 6.95034 112 70 57
-0.286204 -0.062499 5.68293 108 63 42
-0.399818 0.0201494 6.07965 86 48 32
0.123917 -0.0499257 5.49667 157 124 120
0.0697541 0.0677012 6.01053 92 74 65
-0.395322 0.0309312 6.1169 105 64 52
-0.680696 0.285851 7.35017 88 56 52
-0.530069 0.21212 6.93008 34 16 10
-0.300193 -0.051618 5.71526 107 62 41
-0.424362 0.0217393 6.08866 125 84 64
-0.369628 0.00943272 5.99795 94 58 42
-0.646928 0.219183 7.00792 164 123 110
-0.296426 -0.0492725 5.70417 114 68 47
-0.611724 0.257589 7.12715 107 74 68
-0.414363 0.0949949 6.34087 120 78 64
-0.353323 -0.0331216 5.80111 184 166 143
0.0956549 0.0272166 5.77721 127 106 100
-0.518063 0.11369 6.45739 79 44 30
-0.00316499 0.176445 6.35449 137 102 99
-0.267658 0.316655 7.13265 109 78 76
-0.494937 0.156594 6.59759 128 86 74
-0.427127 0.0716305 6.21739 108 66 50
-0.48351 0.124142 6.45913 96 53 42
-0.327584 -0.0309196 5.73817 200 180 156
0.0874479 0.0450319 5.81661 157 142 135
-0.492489 0.147022 6.52127 100 54 40
-0.657683 0.316944 7.2509 105 70 64
0.109694 -0.000419317 5.62858 130 104 98
-0.366807 0.00979667 5.90264 106 60 39
-0.39804 0.0490878 6.07641 109 62 44
-0.492346 0.159504 6.53751 114 69 54
-0.377415 0.0497681 6.04129 98 50 32
0.102571 0.0139787 5.66795 162 139 136
-0.418372 0.0736308 6.16281 96 48 34
-0.255862 -0.049319 5.59116 196 180 152
-0.0191436 0.110853 6.086 142 103 98
-0.00862974 0.119027 6.10485 100 62 58
-0.390708 0.042895 5.99008 108 59 38
-0.404042 0.170889 6.48276 91 56 50
-0.398368 0.172777 6.48722 64 34 28
0.0992747 0.0110632 5.63852 140 114 110
-0.358782 0.0728582 6.08309 113 68 54
-0.557477 0.378403 7.31814 86 49 40
-0.159298 0.235513 6.57002 106 68 66
-0.159785 0.244473 6.61105 118 76 72
-0.115326 0.196126 6.42617 141 98 94
-0.164006 0.331786 6.86468 90 58 54
-0.591525 0.427026 7.50135 102 64 54
-0.347061 0.0096525 5.83191 122 80 61
-0.324191 0.0141989 5.81711 126 72 52
-0.390767 0.173093 6.45906 83 46 38
0.0996582 0.010612 5.62205 198 175 170
-0.452319 0.131084 6.33799 84 38 24
-0.12253 0.245943 6.55472 89 52 47
-0.452413 0.141601 6.35176 106 56 42
-0.295236 -0.00824525 5.71197 85 40 22
-0.693416 0.317864 7.15185 112 67 51
-0.468525 0.191162 6.52355 90 44 31
-0.460076 0.191291 6.52035 90 46 33
-0.289391 -0.0176504 5.66321 184 166 140
-0.228524 -0.0290366 5.60384 112 60 42
-0.241361 0.320873 6.85026 146 108 105
-0.316426 0.011652 5.76867 114 63 45
-0.21642 -0.0468656 5.52516 101 55 36
-0.376572 0.0744742 6.02806 104 60 48
-0.322079 0.0275172 5.83287 110 58 38
0.0563564 0.0825723 5.86407 154 123 116
-0.310514 0.0145071 5.75525 120 70 53
-0.309667 0.123097 6.16534 80 39 32
-0.284179 -0.0133531 5.65241 166 146 121
-0.367877 0.0739633 5.9996 132 96 88
-0.179071 0.214315 6.41171 144 134 124
-0.0039449 0.105761 5.95594 160 127 125
-0.298832 0.0128991 5.72663 113 68 50
-0.337712 0.150981 6.26103 110 69 60
-0.230733 -0.00413365 5.65179 156 125 116
-0.235528 0.116406 6.08382 85 45 38
-0.402416 0.26778 6.68611 81 42 34
-0.418271 0.257864 6.65331 85 44 38
0.0742688 0.0663122 5.73179 187 163 156
-0.403538 0.302485 6.78975 104 64 54
-0.206436 0.310006 6.70052 122 81 78
-0.185336 0.291298 6.63512 125 83 83
-0.2222 0.351251 6.85442 134 92 92
-0.320286 0.0140932 5.7338 153 132 109
-0.406867 0.21288 6.47875 110 66 58
0.103832 0.00816026 5.53463 214 198 190
-0.13872 0.186397 6.22996 128 113 102
-0.366662 0.19482 6.34974 138 108 103
0.10496 0.000304753 5.48688 183 155 149
-0.263061 0.00222693 5.6189 147 118 98
-0.238507 0.0642286 5.83543 98 50 38
-0.0538008 0.183008 6.14845 130 90 89
-0.226904 0.0655933 5.83011 83 36 24
-0.406804 0.292315 6.66738 106 60 54
-0.0917075 0.214174 6.25109 121 78 78
0.105551 -0.000517991 5.47196 209 185 181
-0.162982 -0.0511567 5.39595 106 82 66
-0.33597 0.142857 6.12704 92 44 30
-0.400708 0.235983 6.4518 160 140 138
-0.377066 0.138803 6.11799 103 48 35
0.112547 -0.0135584 5.40555 166 131 122
-0.299984 0.099594 5.92999 108 55 40
-0.323208 0.0508018 5.77252 84 56 44
-0.549084 0.212578 6.37879 117 69 53
-0.255569 0.0179107 5.6116 158 132 118
-0.386151 0.221095 6.39651 120 77 70
-0.195207 0.119595 5.94103 98 47 39
0.126392 -0.037458 5.30433 168 130 124
-0.290412 0.191423 6.18997 106 53 46
-0.340064 0.096063 5.89267 78 32 14
-0.103205 -0.00523738 5.48426 110 58 45
-0.283268 0.142491 6.0312 127 72 62
0.115117 -0.020952 5.35267 169 126 117
-0.152688 -0.0277277 5.41931 102 57 38
-0.253362 0.0483311 5.69785 153 115 102
0.0848161 0.00426641 5.43583 126 82 80
0.100934 -0.027813 5.32395 124 76 76
0.113466 -0.0169637 5.35573 170 132 126
-0.123857 -0.0297438 5.39009 91 52 43
-0.151958 0.088707 5.78436 132 74 64
-0.15617 -0.0261755 5.41002 92 48 31
-0.273389 0.0512495 5.70123 108 63 45
0.0450369 0.0940015 5.68656 162 125 122
-0.200645 0.108331 5.82905 119 72 69
-0.587143 0.408793 6.86892 112 60 51
-0.090059 0.00107396 5.44703 102 54 44
-0.200596 0.00841946 5.49823 166 144 133
-0.109287 -0.0454512 5.29839 100 64 46
-0.343936 0.225844 6.25401 165 138 136
-0.116573 -0.00679958 5.41633 90 38 29
-0.327144 0.152092 5.98844 89 38 26
-0.329067 0.154748 6.00395 104 50 39
0.0504719 0.0728653 5.5804 188 160 159
-0.253243 0.193272 6.04879 112 54 45
-0.253839 0.0852043 5.68809 152 110 94
-0.176449 0.0352301 5.51033 116 74 58
-0.288685 0.12871 5.80419 162 118 108
-0.147772 0.0179358 5.4373 152 112 92
-0.104809 -0.0111147 5.33177 155 117 106
-0.301624 0.149981 5.83543 131 93 82
-0.138745 0.0238007 5.43745 112 68 58
-0.0773487 -0.0152628 5.30477 106 58 46
-0.0926979 0.0137605 5.39313 91 45 38
-0.346901 0.247532 6.16963 96 46 39
-0.115615 0.00988739 5.38647 123 73 59
-0.0415328 -0.709094 5.47961 197 200 152
-0.497515 -0.873687 5.83309 144 138 108
-0.164388 -0.739661 5.74014 128 132 101
0.670629 -0.802868 7.36398 88 88 54
-0.518016 -0.84066 5.87654 116 113 80
-0.501507 -0.684731 6.25439 109 109 88
-0.598714 -0.72665 6.52186 126 122 96
-0.126988 -0.573257 6.85584 146 150 117
-0.207474 -0.537728 6.66802 199 201 154
-0.413863 -0.558199 6.41586 114 113 91
-0.27113 -0.524151 6.73409 140 137 91
-0.316899 -0.51685 6.41918 126 128 89
-0.423327 -0.489361 5.54017 162 144 94
-0.494103 -0.510906 7.54063 128 124 74
-0.38846 -0.447688 5.86439 64 58 34
-0.392412 -0.438242 6.71219 80 86 52
-0.389886 -0.424879 5.87301 105 86 64
-0.494102 -0.435992 6.09719 156 124 97
-0.229412 -0.374265 5.63996 106 100 70
0.17352 -0.280175 5.88565 85 94 58
-0.238399 -0.370791 5.65934 158 149 110
-0.23576 -0.368337 5.63682 200 200 156
0.260009 -0.244551 6.03027 176 139 126
0.169305 -0.264394 5.75032 152 144 112
0.0779077 -0.277965 5.77002 72 60 38
0.100496 -0.234035 6.04732 62 52 38
0.158086 -0.227539 5.87287 96 68 47
-0.367861 -0.37788 5.0056 164 158 100
0.029521 -0.179653 6.03777 38 30 18
0.108906 -0.20114 5.64272 33 14 10
0.167335 -0.0325813 6.44867 190 154 140
0.166136 -0.0478307 6.26565 189 171 162
-0.0194723 0.097387 7.506 59 62 38
-0.577316 -0.141068 6.62024 124 113 114
0.19778 -0.0814037 5.8687 103 102 78
0.122336 -0.00267615 6.13404 112 107 92
0.12128 -0.0061645 6.09336 125 101 94
-0.696296 0.109862 7.20865 84 36 23
-0.68616 0.179665 7.23081 75 32 21
-0.520289 0.0354965 6.42547 49 15 6
-0.573343 0.137444 6.76721 78 38 26
-0.133142 0.271175 6.89654 134 106 104
-0.471758 0.138254 6.36902 62 21 10
-0.300375 -0.00941108 5.7024 82 45 26
-0.377589 0.0846399 6.02259 116 80 70
0.264992 -0.865006 6.14091 124 131 94
-0.207008 -0.638097 6.31019 119 127 83
-0.383887 -0.508325 5.61119 149 148 98
-0.309945 -0.51069 6.42741 168 173 130
-0.328706 -0.472578 5.699 120 122 80
0.254823 -0.348649 5.88536 84 74 36
-0.368101 -0.475974 5.61042 98 99 62
-0.438553 -0.491387 5.58548 136 116 66
0.279426 -0.290087 5.95525 156 127 100
0.108298 -0.213923 5.64677 43 22 14
-0.121685 0.0534498 7.35833 62 62 42
-0.504887 -0.12031 6.44873 98 69 54
-0.733131 -0.0148462 7.16373 137 96 66
-0.290941 -0.00545722 5.66211 140 117 96
-0.207896 -0.774321 5.84895 98 108 71
-0.223853 -0.680147 6.14136 108 121 80
-0.339151 -0.457732 6.53391 83 88 56
0.249202 -0.325149 5.94028 112 86 52
-0.185043 -0.00989724 7.13143 28 30 18
-0.4186 0.254377 6.50544 117 82 73
0.218325 -0.815414 6.12667 110 119 80
0.123109 -0.734766 6.08882 166 171 125
0.100575 -0.671027 5.80495 162 164 120
0.0596509 -0.582401 5.36861 198 202 155
-0.682269 -0.885612 6.36382 120 120 81
0.00801233 -0.686142 6.2692 124 126 82
-0.223335 -0.64662 6.14557 118 125 80
-0.282034 -0.665721 6.27321 168 168 120
-0.291552 -0.648955 6.34805 154 160 114
-0.434589 -0.668964 6.32537 116 115 91
-0.648563 -0.728376 6.63991 136 136 101
-0.148834 -0.587319 6.56859 166 166 115
0.0316038 -0.510992 6.02405 118 126 84
-0.59375 -0.662396 6.59065 139 136 106
-0.203246 -0.558644 6.43802 124 126 78
0.019675 -0.484632 6.06218 118 126 91
-0.314957 -0.559574 6.23097 119 121 86
-0.578478 -0.635269 6.68857 127 127 104
0.0140905 -0.454995 6.06215 156 164 128
0.00967826 -0.45364 5.9492 72 84 58
0.252745 -0.379615 5.7011 172 180 137
-0.479414 -0.537086 6.47926 115 116 84
-0.391522 -0.475375 5.83118 87 86 58
-0.326876 -0.460576 5.78005 141 142 102
-0.386217 -0.44193 7.03306 124 122 68
0.197504 -0.34157 5.57045 106 92 58
0.175423 -0.329854 5.67256 102 98 60
0.280547 -0.305986 5.83352 200 188 158
0.279529 -0.291715 5.83536 158 122 94
0.284922 -0.28879 5.92236 182 160 130
-0.566112 -0.425553 6.20626 172 146 104
-0.195307 -0.36785 5.89655 87 68 44
0.191825 -0.292557 5.92734 156 168 130
0.286265 -0.272841 5.96166 201 200 162
0.0771611 -0.323073 5.66826 173 162 137
-0.0299929 -0.310577 6.20736 72 58 50
0.0891991 -0.316852 5.61367 93 63 50
-0.549928 -0.410343 6.14358 196 198 150
-0.536272 -0.393339 6.17745 170 120 94
-0.597971 -0.389598 6.27002 191 178 133
-0.232579 -0.357131 5.67023 98 81 53
0.106101 -0.294912 5.70203 60 48 23
0.246368 -0.22205 6.40478 192 155 145
-0.619591 -0.374278 6.37519 164 112 83
0.255463 -0.222214 6.17468 184 146 133
-0.208075 -0.345413 5.64201 180 168 151
0.26429 -0.234782 5.99097 178 154 132
0.24654 -0.241498 5.91439 150 110 96
0.257698 -0.227562 6.05225 189 155 140
-0.231506 -0.340643 5.68039 97 80 51
0.222859 -0.2281 6.10937 154 134 104
0.232368 -0.235943 5.99725 156 114 94
0.262165 -0.224893 6.05549 190 176 148
0.0508181 -0.288321 5.67448 82 55 44
-0.249474 -0.334253 5.74487 109 97 79
0.221885 -0.227382 6.04747 139 113 85
0.216734 -0.225853 6.08715 184 180 143
-0.324292 -0.32294 6.04467 38 26 11
-0.328809 -0.337813 5.91842 148 136 101
-0.358755 -0.314357 6.16077 52 48 30
0.216362 -0.22613 6.01835 174 166 134
-0.610476 -0.347588 6.33358 194 172 128
0.212289 -0.219236 6.06559 165 153 122
0.205783 -0.245287 5.63833 192 195 153
0.206836 -0.211193 6.06564 172 167 133
0.232815 -0.213842 5.94979 200 164 153
0.158873 -0.215417 5.92862 79 52 30
0.158711 -0.211236 5.93954 77 52 34
0.161824 -0.195249 5.91643 89 63 44
0.204258 -0.183643 5.96633 160 116 99
0.181888 -0.163794 6.15067 116 74 48
0.169837 -0.176266 6.03132 156 140 122
0.300505 -0.176003 5.82194 143 154 106
0.327022 -0.198333 5.57938 139 149 100
0.329852 -0.201614 5.53715 139 149 100
0.333493 -0.204935 5.51195 139 150 99
0.338002 -0.202854 5.52425 140 148 98
0.342367 -0.203851 5.50821 140 150 103
0.158315 -0.185449 5.96722 92 66 44
0.252383 -0.159162 6.01702 136 149 102
0.266074 -0.181432 5.82847 138 150 102
0.281274 -0.181288 5.80608 139 149 102
0.288002 -0.18126 5.79584 135 148 101
0.291985 -0.181258 5.78965 134 148 98
0.212098 -0.154962 6.09799 190 176 159
-0.243813 -0.239116 6.03859 38 32 20
0.177354 -0.197209 5.72739 94 66 49
-0.4902 -0.247806 6.3224 90 88 72
-0.483864 -0.246567 6.32396 96 86 70
-0.270195 -0.236943 6.04646 65 48 37
-0.212659 -0.244901 5.88501 54 42 32
-0.243397 -0.237722 5.93768 53 39 28
-0.168694 -0.235422 5.83132 31 25 14
-0.693432 -0.214294 6.79121 118 112 98
-0.223301 -0.243484 5.8393 47 32 22
-0.407875 -0.210722 6.3127 44 28 18
0.204428 -0.130115 6.14452 208 186 182
0.0697579 -0.165987 5.9947 64 54 41
-0.543771 -0.231909 6.3585 82 68 52
-0.488354 -0.205236 6.40653 64 34 22
-0.786747 -0.198254 6.91066 126 108 94
0.161829 -0.133937 6.12259 174 132 114
0.20677 -0.132609 6.05422 184 163 153
-0.198808 -0.219752 5.88156 30 23 18
-0.53677 -0.200671 6.41209 104 82 68
0.20033 -0.103862 6.18577 200 179 172
-0.613315 -0.157558 6.79681 80 50 36
-0.546315 -0.196923 6.37815 131 104 93
-0.501221 -0.194032 6.30901 134 109 97
-0.698043 -0.17626 6.67508 138 91 67
-0.756454 -0.189648 6.66832 173 170 153
-0.681953 -0.156942 6.66485 170 122 96
0.195872 -0.0723519 6.2222 189 166 150
-0.581858 -0.179976 6.41645 168 118 90
-0.600567 -0.191878 6.34394 150 123 102
-0.500167 -0.179259 6.33734 121 100 84
0.188158 -0.0783159 6.1274 186 162 147
-0.573312 -0.119529 6.6216 106 90 84
-0.643715 -0.136891 6.5578 150 101 68
-0.565955 -0.179093 6.25076 176 158 138
-0.716317 -0.0255142 6.91706 97 54 32
-0.433697 -0.146041 5.95937 152 130 108
-0.400234 -0.146917 5.8806 178 161 137
-0.569705 -0.0677024 6.46218 128 90 77
-0.605905 -0.0451571 6.57214 106 64 50
-0.408267 -0.139583 5.91519 157 135 111
-0.373176 -0.139824 5.82068 188 182 157
-0.502178 -0.0854982 6.2756 122 87 73
-0.0202305 0.101078 6.79228 155 130 129
-0.0764325 0.184533 7.22814 116 88 85
-0.366586 -0.1333 5.80544 163 144 121
-0.557986 -0.0431964 6.39533 88 53 36
-0.362211 -0.124929 5.82708 104 68 50
0.095248 0.0623377 6.38014 173 156 148
0.10908 0.0203852 6.10616 162 150 140
0.0592981 0.0881524 6.42072 69 44 42
-0.690243 0.0986352 6.94724 80 35 23
-0.420182 -0.0380167 6.02093 114 68 48
-0.356234 -0.0784589 5.79211 118 97 78
-0.573559 0.117211 6.69594 90 42 26
-0.610848 0.1493 6.82126 110 62 46
0.10305 0.0261722 5.88054 162 143 134
-0.0737741 0.277335 6.96315 98 64 62
0.0695045 0.0865767 6.14172 138 110 101
-0.646451 0.270773 7.24382 78 46 41
-0.476643 0.081895 6.35635 98 58 44
-0.469387 0.0917047 6.35504 48 20 8
-0.647285 0.318942 7.24861 127 103 96
-0.461185 0.0612882 6.19699 101 56 38
-0.646029 0.328935 7.24897 122 102 95
-0.524276 0.116888 6.40319 108 56 38
-0.322693 0.00321007 5.79211 105 54 34
-0.295273 0.38438 7.09213 91 60 54
-0.309666 0.001799 5.70721 138 116 93
-0.395231 0.0937854 6.05102 66 25 14
-0.401428 0.149298 6.25404 100 50 36
-0.422907 0.186642 6.25531 97 41 28
-0.376419 0.100344 5.93654 93 50 35
-0.244722 0.385845 6.78349 130 86 86
-0.291167 0.0374773 5.69294 78 52 38
-0.229862 0.369467 6.70655 120 73 71
-0.239978 0.340366 6.63571 116 86 82
-0.538093 0.360882 6.7529 96 62 42
-0.393738 0.205078 6.18552 106 48 34
-0.169239 0.349412 6.50388 125 84 80
-0.257895 0.429396 6.81748 124 77 75
-0.119565 0.282618 6.29007 114 74 69
-0.339514 0.234053 6.26271 116 72 64
0.0103586 0.141836 5.84574 124 84 80
-0.127315 0.320817 6.36207 74 40 38
-0.186166 0.353443 6.49274 120 76 76
-0.175373 0.331882 6.40924 115 67 67
-0.311641 0.109258 5.79479 126 89 72
-0.244386 0.332238 6.34292 92 50 44
-0.0308159 0.218223 5.96518 161 142 142
-0.604484 0.615344 7.25563 94 73 49
-0.301274 0.241595 6.11662 96 51 42
-0.133398 0.298668 6.1863 125 82 82
-0.124265 0.303083 6.20344 106 68 66
-0.236997 0.303592 6.20803 78 34 30
-0.0290113 0.190453 5.84898 118 79 78
-0.629588 0.666605 7.26346 82 54 33
-0.631873 0.676726 7.26474 88 68 44
-0.0309265 0.189443 5.79715 138 110 110
-0.0620621 0.23804 5.93 148 126 128
-0.320775 0.446058 6.54681 118 70 60
-0.212534 0.329253 6.16855 124 84 79
-0.230659 0.349477 6.22184 126 85 79
-0.188722 0.313548 6.10728 106 84 58
-0.0964438 0.277794 5.9871 115 86 84
-0.200441 0.306855 6.05638 122 80 71
-0.205927 0.319066 6.04916 161 134 131
-0.192567 -0.748259 5.8064 137 140 108
-0.446783 -0.688976 6.3435 120 122 90
-0.376099 -0.472067 5.81062 82 81 56
0.0434809 -0.283661 5.70853 91 68 59
-0.378768 -0.136078 5.84428 151 130 104
0.0687795 0.0838368 6.35962 104 75 70
0.0372947 0.106068 6.09795 124 88 84
-0.11355 0.298018 6.18717 131 98 96
-0.153428 0.33276 6.28826 124 85 86
-0.298357 0.26955 6.10833 72 32 27
-0.209111 0.332474 6.17937 120 83 70
0.0391765 -0.220432 6.09779 55 54 36
-0.373196 -0.0845259 5.83202 156 134 112
-0.210042 0.360274 6.94807 113 70 66
-0.404186 0.234689 6.45754 138 114 108
-0.454988 -0.623672 6.41473 89 92 66
0.156955 -0.794596 5.61713 158 162 109
0.157448 -0.816557 5.69479 76 82 32
-0.456522 -0.878714 5.46747 167 163 114
-0.446965 -0.875468 5.50359 148 147 96
0.279706 -0.819296 5.95629 144 150 102
0.265784 -0.796301 5.90137 82 94 59
-0.14122 -0.751079 5.40952 75 82 36
-0.152199 -0.759359 5.53958 100 102 68
-0.185647 -0.780304 5.57808 118 118 74
-0.167724 -0.77739 5.60351 114 114 74
0.119584 -0.694743 5.59972 72 81 40
-0.173121 -0.780594 5.66587 115 116 71
-0.193508 -0.767727 5.63809 136 136 92
-0.604067 -0.928357 5.93496 61 62 43
0.616226 -0.678998 6.22456 98 98 60
-0.200545 -0.763919 5.69109 106 108 68
0.649981 -0.712612 6.44607 156 154 109
-0.210283 -0.772687 5.73098 120 120 81
0.0944421 -0.694568 5.72518 154 158 108
-0.208964 -0.767242 5.72884 132 134 92
0.583923 -0.667994 6.28494 96 92 54
0.609779 -0.711132 6.62017 66 64 24
-0.502534 -0.818084 6.01489 79 82 39
0.0964453 -0.656882 5.8238 156 158 116
0.0918049 -0.654343 5.84487 116 124 82
0.0896091 -0.649692 5.84263 88 99 57
0.0606559 -0.651811 5.9555 87 98 49
-0.166641 -0.692668 6.03925 110 116 68
0.000563243 -0.695761 6.32212 96 102 54
-0.261688 -0.725625 6.19444 86 96 57
-0.0453165 -0.687979 6.59427 116 120 69
-0.165548 -0.644573 6.12293 116 126 80
-0.665609 -0.799929 6.48706 90 92 60
-0.637456 -0.7642 6.48382 92 89 56
-0.179404 -0.638652 6.26928 142 146 102
-0.179131 -0.632782 6.27251 113 117 74
-0.167161 -0.616884 6.21646 98 107 60
0.30664 -0.567377 6.91487 63 70 54
-0.451167 -0.683074 6.3869 140 140 99
-0.55197 -0.686263 6.37063 77 75 47
-0.176325 -0.616819 6.75773 144 145 94
-0.191901 -0.623012 6.85133 145 146 96
-0.30953 -0.625453 6.46829 116 118 69
-0.159734 -0.569865 6.25664 114 117 68
-0.245068 -0.575015 6.23931 101 102 50
0.193299 -0.508883 6.87547 80 86 68
-0.322159 -0.598932 6.57669 110 112 63
0.195799 -0.508276 7.05254 72 77 58
-0.240644 -0.553554 6.47825 120 122 80
-0.220554 -0.547126 7.04302 126 123 83
-0.601443 -0.621473 6.69585 128 126 92
0.301433 -0.401414 5.81681 153 155 111
0.289916 -0.405687 5.84749 84 79 34
-0.183348 -0.515625 6.46654 80 90 40
0.296292 -0.397121 5.81728 74 64 29
-0.364249 -0.539988 6.3265 65 69 42
0.272175 -0.394341 5.88895 108 116 70
-0.385122 -0.51614 6.47824 92 93 64
0.094831 -0.411753 6.5403 70 74 56
0.242775 -0.367291 5.97732 56 62 26
-0.00605288 -0.417356 5.90473 46 54 30
-0.281444 -0.470043 6.51112 152 154 110
-0.498499 -0.508359 6.65985 73 74 44
-0.319526 -0.47483 6.5391 62 70 32
-0.45832 -0.492121 6.51445 131 134 95
-0.0199778 -0.376878 6.75868 46 50 31
0.199376 -0.347531 5.55263 108 104 63
0.290471 -0.320508 5.92576 170 172 132
0.28549 -0.315285 5.92833 148 126 95
0.290134 -0.315572 5.92455 166 164 124
0.125352 -0.352605 5.58148 166 174 135
0.295457 -0.308876 6.01084 168 173 130
0.132994 -0.347926 5.5745 165 176 134
0.124613 -0.347087 5.62229 79 75 46
0.128455 -0.343696 5.61763 137 135 104
-0.295311 -0.415739 5.87042 60 64 32
-0.243227 -0.408719 5.5215 48 27 10
0.129481 -0.341657 5.623 74 67 36
0.223789 -0.319087 5.85653 75 80 46
-0.42982 -0.431429 5.89532 149 122 82
0.105235 -0.336616 5.63069 114 98 70
-0.370116 -0.414713 5.89641 72 50 27
0.289434 -0.2793 5.99953 162 152 114
-0.468647 -0.428626 5.9798 151 128 86
-0.268311 -0.392285 5.68159 75 70 40
0.140937 -0.3128 5.85008 80 90 50
-0.263601 -0.390904 5.63834 56 34 16
-0.368082 -0.387696 6.27117 128 132 94
0.092066 -0.32973 5.59709 80 53 32
-0.511755 -0.41186 6.08152 132 87 57
0.0889611 -0.322233 5.59461 70 47 24
0.0793647 -0.316717 5.66297 78 51 33
0.11378 -0.303155 5.80585 130 134 93
0.0780776 -0.313858 5.66801 80 53 37
-0.25418 -0.369629 5.65275 84 56 26
-0.608593 -0.395564 6.32851 127 78 52
-0.0422841 -0.30381 6.04894 76 76 67
-0.576262 -0.382635 6.33261 133 122 78
-0.27903 -0.364914 5.63324 149 132 85
-0.162518 -0.339349 5.57771 46 49 30
-0.559427 -0.366319 6.28741 124 108 70
-0.275798 -0.361426 5.65437 73 36 12
-0.245989 -0.35814 5.57926 63 37 12
-0.121347 -0.287061 6.30311 92 94 85
0.241302 -0.218263 6.30597 152 114 98
-0.563602 -0.367138 6.224 148 98 70
0.0823032 -0.283983 5.71767 43 32 14
-0.247866 -0.346854 5.60751 83 50 27
-0.552938 -0.352698 6.27341 113 91 52
-0.3467 -0.323362 6.14869 46 49 30
0.236644 -0.207704 6.20093 147 110 92
-0.602915 -0.354427 6.30557 156 120 82
-0.144691 -0.267036 6.44213 106 109 102
-0.299637 -0.315943 5.99417 56 56 38
-0.307604 -0.339508 5.74357 48 28 6
-0.347485 -0.328065 5.99732 52 42 18
0.0656939 -0.277616 5.68552 46 42 22
-0.64164 -0.338664 6.39602 164 146 100
-0.607565 -0.332837 6.38964 100 60 32
-0.306881 -0.332115 5.79912 178 169 147
-0.149944 -0.247423 6.42133 128 126 122
0.0749427 -0.280481 5.54586 44 38 22
-0.660654 -0.319281 6.50832 124 82 57
0.0254721 -0.265626 5.74912 51 32 20
0.0455331 -0.268726 5.65017 32 26 12
0.180333 -0.220521 5.87534 108 84 53
0.0208972 -0.257181 5.74845 50 39 22
-0.549737 -0.271253 6.66785 72 75 56
-0.299464 -0.30123 5.87723 74 78 62
0.0412402 -0.262758 5.64183 46 41 22
-0.314742 -0.305853 5.80051 68 72 52
0.183672 -0.19103 6.08265 122 92 56
-0.0858476 -0.236867 6.10292 38 34 26
0.168513 -0.111233 6.79393 114 76 46
-0.101458 -0.218772 6.16547 70 68 56
0.0369695 -0.190181 6.16589 16 10 2
0.184526 -0.128581 6.47485 138 93 70
-0.424844 -0.273399 6.1093 56 60 45
0.197009 -0.149003 6.2249 168 127 117
0.372079 -0.182985 5.65387 104 118 72
0.370692 -0.191122 5.56881 107 122 76
0.415037 -0.143898 5.94712 106 120 75
-0.199129 -0.179853 6.54363 114 112 104
0.297745 -0.19036 5.68772 101 115 72
0.300487 -0.197394 5.6255 103 116 74
0.303861 -0.196698 5.62062 98 111 69
0.352216 -0.19559 5.5742 114 128 83
0.355152 -0.194278 5.5701 99 114 69
-0.539401 -0.278678 6.18853 60 64 41
-0.327948 -0.134365 7.16687 101 101 92
0.261221 -0.182272 5.81003 98 115 69
-0.461014 -0.285597 6.01373 68 69 50
-0.297247 -0.289922 5.68813 70 67 50
-0.373639 -0.272094 5.90142 81 73 60
-0.574997 -0.277969 6.23288 72 77 60
-0.44635 -0.239229 6.2305 62 38 20
-0.42702 -0.236872 6.19918 54 28 17
-0.279162 -0.238058 5.95733 26 17 12
-0.203811 -0.145257 6.71473 61 60 46
-0.53109 -0.25992 6.15535 70 66 48
-0.555553 -0.251013 6.24628 83 60 41
-0.445224 -0.238047 6.17595 50 37 28
-0.310111 -0.114426 6.98426 59 64 48
-0.601725 -0.2407 6.33868 120 91 70
0.201039 -0.101095 6.30898 156 130 124
-0.751885 -0.226987 6.66332 60 62 44
-0.571353 -0.226832 6.35457 114 82 68
-0.424966 -0.243461 6.02325 87 68 54
-0.545942 -0.18318 6.59837 38 15 8
-0.604367 -0.189137 6.57636 94 73 62
-0.34146 -0.186317 6.25735 20 15 11
-0.441463 -0.212796 6.16244 27 10 4
-0.635379 -0.234568 6.30347 108 108 90
0.0657255 0.00940231 7.07113 62 39 26
-0.538245 -0.248194 6.04526 72 75 58
-0.478926 -0.195947 6.27348 50 37 28
-0.580068 -0.208067 6.31552 114 70 54
-0.602664 -0.192401 6.43058 119 73 44
-0.592246 -0.122212 6.85549 45 20 12
-0.603322 -0.196033 6.43586 120 71 40
-0.594824 -0.123981 6.83589 72 30 21
0.193427 -0.0459021 6.42456 162 142 127
0.186605 -0.0430659 6.42864 141 98 78
0.143523 0.0378783 6.9473 166 136 121
0.178506 -0.0163407 6.55081 152 116 100
-0.673891 -0.144568 6.51489 166 152 128
-0.318178 0.00119444 7.03934 26 11 8
0.181326 -0.053242 6.20589 164 147 135
-0.566042 -0.15118 6.30611 130 95 70
-0.689092 -0.104856 6.63985 134 88 60
-0.401517 -0.161273 5.8871 82 52 30
-0.536328 -0.0669697 6.41941 88 46 30
-0.529298 -0.0555566 6.40322 60 31 24
-0.67002 0.0494929 7.05507 146 100 80
-0.747775 0.0879935 7.25391 94 45 28
0.0114326 0.158048 6.96665 97 66 62
-0.354283 -0.123146 5.76978 128 100 76
-0.315362 -0.132375 5.67007 140 114 88
-0.317225 -0.120911 5.67344 127 100 74
0.133965 0.388908 7.54682 104 104 89
0.0458084 0.127295 6.42354 105 78 74
-0.57457 0.101609 6.52123 77 38 20
0.112101 -0.00240202 5.71616 110 92 82
-0.458719 0.375922 7.436 62 24 14
-0.0290253 0.220906 6.54747 80 46 40
-0.00461421 0.188761 6.39562 94 58 51
-0.322438 0.446789 7.46145 90 54 51
-0.22544 0.369636 7.07271 89 50 44
-0.447422 0.40282 7.26287 82 35 22
-0.195112 0.338264 6.90763 95 56 49
-0.434126 0.376316 7.16879 89 42 27
-0.433096 0.396027 7.24135 72 28 17
-0.216324 0.361345 6.95802 84 46 40
-0.202924 0.353012 6.92818 82 42 37
-0.244379 0.359344 6.95803 102 66 62
0.0930004 0.0146251 5.60144 94 58 50
0.0892044 0.0436043 5.68809 139 122 114
-0.365661 0.410525 7.09619 94 56 46
-0.280092 -0.00863135 5.63073 132 112 91
-0.348609 0.405648 7.05474 54 20 14
0.079928 0.0581834 5.622 98 77 70
-0.323099 0.146137 6.06777 77 59 36
0.0149413 0.216408 6.14204 97 58 47
-0.00961726 0.244465 6.22998 76 36 24
-0.33914 0.166854 6.10727 72 52 27
-0.265995 0.36695 6.72736 86 42 38
0.0642321 0.0837755 5.68543 96 62 52
0.0618039 0.102959 5.74927 140 120 114
-0.316578 0.153053 6.01673 76 56 29
-0.165978 0.275221 6.30547 99 52 47
-0.260311 0.411994 6.74527 96 48 41
-0.0344896 0.253905 6.15288 81 42 34
0.0569763 0.0821431 5.61674 154 138 132
-0.316724 0.165683 5.97708 71 50 28
0.0430524 0.106311 5.66598 148 132 124
-0.317099 0.170561 5.97484 68 58 32
-0.30808 0.195635 6.0168 83 74 54
-0.252216 0.0977481 5.6937 104 68 52
-0.292434 0.182927 5.94356 75 63 44
-0.17937 0.338819 6.30606 89 44 41
-0.172282 0.312527 6.2411 86 39 35
-0.118248 0.280244 6.1376 92 54 52
-0.345081 0.209262 6.01164 66 46 22
-0.285734 0.185228 5.92987 70 37 25
-0.113488 0.295838 6.14063 78 48 44
-0.291585 0.156211 5.83843 94 68 40
-0.279481 0.331667 6.31378 60 16 8
-0.362125 0.264074 6.11503 91 82 58
-0.256883 0.273673 6.07902 74 32 18
-0.305319 0.368541 6.34091 82 30 18
-0.220501 0.276725 6.04011 86 30 18
-0.210196 0.268278 6.01276 96 40 26
-0.188374 0.272936 6.01736 78 34 23
-0.0845397 0.223415 5.83978 101 68 64
-0.201532 0.310564 6.109 115 82 78
-0.213765 0.310777 6.09193 101 54 40
-0.155634 0.30678 6.07777 87 51 47
-0.129658 0.272845 5.98592 66 31 26
-0.195185 0.305515 6.07894 110 74 65
-0.235155 0.28773 6.0342 140 96 80
-0.255558 0.296691 6.05553 136 91 75
-0.16366 0.30859 6.01513 135 104 98
-0.175752 0.309861 6.027 147 116 111
-0.181964 0.323204 6.05147 150 122 118
-0.234694 0.421759 6.26804 148 130 131
0.15963 -0.825461 5.68019 168 170 118
-0.0706637 -0.656713 6.58069 114 115 65
-0.0707859 -0.651438 6.5798 116 116 67
-0.218425 -0.534383 6.48245 94 94 48
-0.334976 -0.448623 5.87705 104 108 66
0.179407 -0.26671 5.66169 130 125 91
0.170524 -0.240192 5.77161 158 138 118
-0.152056 -0.23746 6.39646 102 105 94
0.379113 -0.193021 5.5382 110 120 74
-0.0319476 -0.186949 6.08349 38 42 24
-0.496665 -0.251666 6.1392 118 86 70
-0.030128 0.24406 6.66728 90 58 54
-0.41586 0.414089 7.38 69 34 26
-0.241411 0.354816 6.99251 62 26 18
-0.0557934 0.236862 6.14964 82 44 40
-0.32728 0.341926 6.56322 76 22 12
-0.16312 0.299916 6.10564 88 46 41
-0.106579 0.286216 6.01354 92 54 50
-0.254164 0.313243 6.16696 92 35 24
-0.282558 -0.73035 6.4822 136 139 93
-0.399747 -0.259666 6.01488 59 50 41
-0.61796 0.229435 7.12828 53 39 22
0.0369825 0.140662 6.29269 83 48 42
-0.319704 -0.405325 5.71977 112 94 56
-0.490495 0.678928 8.58921 90 52 34
0.0983911 0.0179126 5.63629 118 104 90
-0.0884029 0.237031 6.11294 77 73 48
-0.262125 0.373834 6.48081 91 76 54
-0.133942 0.273171 5.9615 109 99 72
0.150052 -0.800312 5.70158 45 62 15
-0.166479 -0.771092 5.44504 158 159 104
-0.165709 -0.763299 5.42744 146 146 91
-0.162791 -0.762644 5.43042 96 99 45
0.249699 -0.860198 6.15838 105 112 70
-0.167977 -0.767011 5.46334 72 80 26
-0.143254 -0.747498 5.42646 110 116 65
-0.152497 -0.762852 5.48271 141 142 90
-0.19344 -0.775781 5.61792 118 120 78
0.215802 -0.801323 6.13986 108 114 73
0.231491 -0.582547 5.27394 153 160 108
-0.186925 -0.786955 5.75404 90 98 60
-0.175875 -0.75276 5.85159 94 104 63
0.578096 -0.736219 6.73614 106 108 66
-0.00973961 -0.611884 5.34383 152 158 106
0.00600721 -0.590544 5.26241 150 158 105
-0.500842 -0.77975 5.85342 118 112 74
-0.541402 -0.825622 6.16676 86 88 54
-0.615495 -0.818843 6.18122 66 69 34
-0.504842 -0.77356 6.22243 108 111 72
-0.169823 -0.671284 6.12361 126 134 89
-0.183812 -0.679366 6.21018 106 114 68
-0.44062 -0.670801 6.32641 94 96 69
0.154261 -0.499043 6.74241 26 36 16
-0.300815 -0.594072 6.83578 87 94 54
-0.210705 -0.534023 6.68091 124 128 82
0.304636 -0.396994 5.82946 124 132 87
0.105481 -0.445346 6.84157 58 66 51
0.0107458 -0.469051 7.26925 41 46 22
-0.242124 -0.494944 6.81078 112 108 64
-0.224618 -0.484372 6.66467 100 99 48
-0.240244 -0.462774 6.59415 101 98 49
-0.371013 -0.480414 5.41599 146 138 84
0.0414435 -0.405439 7.10146 92 100 76
0.290309 -0.34358 5.99871 160 166 120
-0.364399 -0.456763 5.74607 42 39 13
-0.499377 -0.470792 6.81672 104 104 68
-0.0678015 -0.373561 6.87408 43 48 28
0.25181 -0.318206 6.13087 89 86 50
0.179306 -0.337571 5.56377 56 66 30
0.0929168 -0.346262 5.53131 130 134 92
-0.435895 -0.426409 5.96406 102 80 58
0.0977694 -0.340133 5.58252 134 134 91
0.101697 -0.340451 5.64864 94 82 50
0.0634381 -0.330173 5.73342 98 80 64
0.0772552 -0.332428 5.65243 110 86 60
-0.372004 -0.41228 5.81008 142 128 89
0.083274 -0.333788 5.68737 131 123 89
0.109167 -0.331209 5.59898 72 42 22
-0.201102 -0.334037 6.82254 86 90 78
-0.261524 -0.377662 5.90904 106 105 70
0.289047 -0.273465 6.08158 156 130 104
-0.297363 -0.389785 5.70837 84 54 28
0.117549 -0.304548 5.86027 130 133 92
0.0742583 -0.317214 5.68433 50 26 13
-0.293009 -0.362229 5.77874 100 66 34
0.0892663 -0.28176 6.01992 42 38 18
0.0590732 -0.299429 5.75414 66 40 28
-0.591919 -0.384323 6.25106 150 140 88
-0.252188 -0.349564 5.67127 89 55 28
-0.256117 -0.358301 5.56404 123 100 57
0.265345 -0.210972 6.28591 138 110 88
0.266931 -0.193163 6.45649 147 122 96
-0.261212 -0.337688 5.66207 131 111 94
-0.312978 -0.316735 6.02051 29 29 14
-0.304537 -0.333383 5.72917 66 53 28
-0.262687 -0.334761 5.62168 86 70 47
-0.38127 -0.341327 5.90987 150 148 104
-0.23557 -0.251587 6.62128 112 107 89
0.175658 -0.236195 5.89857 78 42 17
0.254723 -0.156794 6.66326 156 150 122
0.16553 -0.223876 5.95478 104 78 54
-0.23352 -0.239886 6.55993 98 94 76
0.183775 -0.230916 5.84695 84 50 22
-0.519888 -0.320439 6.15076 82 68 39
-0.229471 -0.228912 6.61666 95 96 84
-0.295013 -0.309476 5.80148 50 53 36
-0.56501 -0.299778 6.27152 58 62 36
-0.443701 -0.303847 6.02812 74 76 54
-0.408472 -0.310091 5.9473 51 56 36
-0.0445399 -0.209996 6.19427 37 36 22
0.11098 -0.209066 5.88895 26 8 4
-0.529299 -0.297866 6.11713 64 68 44
0.125092 -0.19081 6.04097 36 12 6
0.413293 -0.20368 5.4068 126 138 94
0.209548 -0.141903 6.27429 155 137 120
-0.397614 -0.28578 5.85391 104 83 62
0.147657 -0.150183 6.23782 68 40 24
0.208566 -0.144835 6.19351 143 130 110
0.202423 -0.142543 6.19548 173 140 134
-0.107751 -0.18953 6.20717 52 50 30
0.186046 -0.0810487 6.70086 169 124 110
-0.0970359 -0.189646 6.17778 48 50 28
0.0322262 -0.202268 5.8739 18 14 8
-0.429045 -0.239212 6.12688 32 22 8
0.187836 -0.141443 6.0679 151 104 87
0.00731741 -0.161187 6.15219 26 24 16
-0.86184 -0.203682 7.03885 106 72 51
-0.0425155 -0.0745469 6.84706 33 30 14
-0.00015432 -0.0934243 6.58034 31 26 10
-0.422087 -0.206529 6.18085 54 24 14
-0.551579 -0.160782 6.66495 58 27 18
-0.563157 -0.194753 6.34282 112 66 41
-0.569578 -0.16031 6.45919 106 70 45
-0.570755 -0.156411 6.48456 97 63 42
-0.607065 -0.162082 6.38279 100 58 39
-0.600431 -0.168464 6.33796 161 144 119
-0.567072 -0.171208 6.27619 110 74 52
0.182534 -0.0406439 6.28791 138 114 102
0.0787256 0.0109901 6.42279 27 34 14
-0.774491 -0.0185744 7.11024 138 94 64
-0.0760073 0.283352 7.23614 55 26 22
-0.0437701 0.248917 6.84929 75 46 41
-0.498704 0.267938 7.19108 72 26 18
-0.501123 0.289929 7.27119 80 34 24
0.0788976 0.0976625 6.11542 80 46 36
0.0918579 0.0593213 5.92624 83 53 42
-0.522275 0.338938 7.38529 79 34 24
