ply
format ascii 1.0
element vertex 1365
property float x
property float y
property float z
property uchar red
property uchar green
property uchar blue
end_header
-0.078934 0.716492 6.04045 184 178 154
0.296002 0.87319 7.31554 66 48 36
0.494691 1.06077 7.13071 124 78 52
2.45563 1.57682 6.64791 194 184 174
1.42254 0.12898 7.86205 100 91 78
-0.0918974 0.719263 6.03308 186 180 156
1.61725 1.36122 7.40044 75 48 44
1.27886 1.03218 6.99775 84 56 46
1.15906 1.24071 5.93114 59 28 25
1.61926 1.73603 7.65538 154 134 133
0.182039 0.722635 7.35835 140 121 106
1.37794 0.902054 6.91324 100 68 58
2.09449 0.90133 7.03347 190 176 161
1.33718 0.873581 4.74599 150 126 102
1.72264 1.21652 7.30918 42 22 14
1.58349 1.98956 7.78508 108 77 75
1.19598 1.14012 6.05474 114 78 72
2.08517 0.901227 6.99846 182 171 156
1.14659 0.838653 5.56656 64 37 18
2.44911 -0.137206 8.08892 156 128 100
1.97322 0.28994 8.38431 62 44 28
2.05525 0.225441 8.24856 167 158 132
1.9765 0.290941 8.36549 65 44 28
1.5375 0.126641 7.53084 183 182 150
0.761917 1.57837 7.47211 98 76 74
1.9059 0.80839 7.25394 74 68 49
0.752546 1.5469 7.39361 126 98 92
-0.816628 -1.21447 6.79035 78 80 52
0.106133 1.62355 7.9309 141 116 93
0.236054 2.00382 8.3136 136 102 90
1.47889 2.41689 8.12918 105 64 56
1.41722 0.870046 9.26358 64 43 34
1.97286 0.961065 8.52202 70 56 43
-0.538186 -0.937827 6.89972 82 81 55
-0.74866 -1.11986 6.84422 84 85 57
0.228222 2.08834 8.47127 124 88 73
0.709138 0.810265 8.23253 54 41 30
1.60498 1.14733 7.59157 65 30 25
0.757502 1.15116 7.09897 111 60 42
0.694895 1.45096 7.47959 32 11 8
1.52389 1.02611 5.39438 126 96 85
-0.70672 -1.20354 6.82903 122 120 98
1.39745 0.766303 4.96754 170 158 137
1.79909 0.948806 7.01287 103 96 76
0.519044 -0.837745 7.68161 124 138 94
2.13273 0.421514 8.22953 88 56 36
1.50611 1.28362 8.24702 53 28 24
0.520888 -0.836734 7.67618 124 137 94
-0.898451 -1.289 6.73497 76 74 52
-0.88871 -1.28554 6.70848 80 80 56
1.60483 0.238288 7.60257 84 66 47
0.846781 0.812994 5.18987 110 96 78
1.68022 0.933965 7.62155 95 74 61
1.2265 0.911648 4.03688 98 76 62
-0.0481845 0.160416 8.48922 170 176 131
0.842455 0.814568 5.08532 118 100 76
1.66422 0.960605 7.18779 51 28 14
1.21842 0.912219 4.09292 113 92 73
0.757968 -0.766319 7.76826 152 153 108
0.272015 -0.485604 7.4846 118 120 79
2.00574 -0.429907 7.32614 96 100 81
1.82828 -0.254675 7.37517 80 86 71
1.57703 -0.0148094 7.44822 112 115 102
1.76584 -0.0845126 8.53132 110 107 76
1.10638 0.127165 6.88368 144 147 118
0.628902 0.133829 7.09935 116 118 85
1.63733 -0.0136339 8.79373 160 160 121
1.94259 0.0486578 8.21893 154 163 124
1.10164 0.229287 6.70318 132 136 113
1.508 0.0511317 8.69961 106 96 78
1.59492 0.0595082 8.63998 166 159 124
1.52752 0.0688991 8.63102 116 104 79
1.54407 0.101599 8.75346 40 16 2
-0.126978 0.40443 8.25026 52 37 12
2.20017 0.425679 8.28246 152 127 94
0.463911 0.552532 7.36535 90 92 84
2.10305 0.538816 7.89552 44 24 10
2.17284 0.667221 7.65817 100 58 34
0.0215782 0.764999 7.26707 84 42 26
0.233571 0.777561 7.33415 27 12 4
2.2143 0.753163 7.64418 113 71 50
1.29894 0.774189 7.08098 80 62 48
2.22815 0.779674 7.73276 176 145 130
2.21028 0.813235 7.65496 98 65 49
2.04441 0.856346 7.24209 116 96 78
1.40462 0.925339 6.86056 26 6 4
1.3597 0.961732 6.81737 96 62 49
0.907194 0.966399 6.05442 132 111 80
1.87095 1.00729 7.06664 158 140 133
2.23365 1.02716 6.8471 88 88 67
1.17346 1.11441 6.97605 77 30 8
1.27377 1.10818 7.12488 71 34 20
1.71123 1.18877 7.26078 80 58 55
2.32012 1.14066 6.71611 156 155 138
1.81761 1.29068 7.49138 60 32 28
1.1033 1.18973 5.90453 84 88 68
1.95864 1.37972 7.83648 119 94 89
1.58071 1.43068 7.3373 137 108 104
1.66212 1.45958 7.45806 128 106 105
1.65783 1.48185 7.47653 113 90 88
1.94141 1.5444 7.83463 32 9 5
1.2705 1.61254 7.38719 128 101 96
1.90226 1.74771 8.13488 68 34 28
1.84645 1.78064 8.02489 50 20 15
1.59609 1.7375 7.66017 46 20 16
1.62181 1.79415 7.67356 44 18 16
1.29789 1.89218 7.52767 112 67 60
1.57814 1.97846 7.8493 126 98 98
1.7109 2.209 8.37474 92 60 58
1.24237 2.14644 7.81398 122 89 82
1.26401 2.1387 7.81316 82 34 27
0.853633 2.23929 7.96748 129 92 86
1.21513 2.39205 8.02914 94 53 46
-0.437594 1.8179 5.40199 114 104 90
1.34125 2.43476 8.11655 116 80 76
0.81652 1.81813 5.40041 80 68 54
-1.28363 -1.65786 6.65427 100 94 50
-0.693046 -2.42014 8.84675 120 122 69
-0.873204 -1.36897 6.86469 158 158 112
1.92955 -0.35306 7.33989 84 90 72
1.82549 -0.268946 7.51733 100 104 90
0.755214 -0.120484 7.51186 152 155 110
-1.09799 -0.0902482 7.7851 110 88 39
2.38773 -0.14523 8.08861 64 44 14
1.51063 0.0273747 9.02072 108 98 80
1.53703 0.0542949 8.79849 101 88 62
2.00574 0.258462 8.33492 85 71 42
-0.15844 0.337606 8.4096 122 98 76
0.0155932 0.326419 8.53551 136 128 92
0.171124 0.366072 8.12723 32 22 6
1.26524 0.394139 7.88882 94 90 83
-0.118355 0.400358 8.21297 60 42 16
-0.060349 0.707863 6.09804 146 144 106
0.158829 0.789058 7.32159 76 50 40
0.241284 0.782507 7.40908 127 120 110
0.21409 0.935784 7.28492 88 50 24
1.83351 0.989388 7.02517 121 100 92
1.86882 1.01106 7.04107 163 143 138
0.0152239 1.10279 7.68045 103 78 56
1.9802 1.24313 7.61885 42 18 14
1.31834 1.23411 7.11932 28 7 4
0.0854202 1.48577 8.10189 50 20 8
1.65763 1.46547 7.46793 122 99 98
1.27062 1.61396 7.3884 113 84 78
1.66065 1.62992 7.63694 38 20 18
1.61807 1.73329 7.65105 120 98 96
1.58998 1.74475 7.67204 54 26 21
1.37242 1.86868 7.63469 113 75 72
1.80338 1.99158 8.26162 124 90 86
1.23358 2.19687 7.88938 108 78 72
0.667974 2.31397 7.96276 110 94 73
1.19635 2.38671 8.02022 81 36 28
1.24433 2.40482 8.04042 70 30 26
0.264266 -0.501855 7.52525 158 159 112
0.384148 -0.401643 7.4851 136 141 99
0.35601 -0.074496 7.22734 66 69 38
1.6299 -0.0221912 8.83311 162 171 127
1.73617 0.0230899 8.80588 167 170 129
1.56616 0.0449253 8.83401 165 164 125
1.64011 0.0848858 8.78753 102 74 52
-0.168494 0.179004 8.11755 174 159 113
2.44601 0.185327 7.80659 151 116 100
2.06791 0.207648 8.35345 164 162 126
0.036956 0.326183 8.44055 157 150 112
1.26408 0.391476 7.88864 88 84 78
2.12007 0.367358 8.34652 155 136 113
2.10509 0.398564 8.22187 59 33 14
2.07785 0.747899 7.6196 122 84 62
2.17404 0.77222 7.28666 176 146 132
0.307115 0.848724 7.34863 92 79 82
1.86471 1.01929 7.12743 146 128 122
0.339417 1.10679 7.18495 62 26 17
0.493841 1.11358 7.073 144 98 76
1.72114 1.18611 7.30684 58 36 33
1.59259 1.75893 7.74761 52 24 20
2.49149 1.64318 6.69469 65 37 14
1.80464 1.96587 8.17791 122 86 82
1.25807 1.92055 7.62397 126 104 103
1.25222 1.96113 7.66737 114 92 88
1.72064 2.21749 8.40882 92 60 58
1.23876 2.21736 8.16318 99 63 58
1.22298 2.39173 8.0729 116 78 72
1.36114 2.43267 8.14207 66 29 25
-0.196691 -1.98683 8.2542 142 144 97
3.00817 -1.14609 6.82515 114 116 72
-0.404987 -1.03048 7.05026 111 116 69
0.0326333 -0.405585 7.04896 108 104 82
1.92245 -0.338015 7.279 78 84 66
0.353705 -0.0935292 7.1821 96 98 70
-1.14272 -0.104747 7.9049 106 82 37
2.38563 -0.147098 8.09572 54 35 8
1.57695 -0.0207189 7.42185 74 77 62
1.62621 -0.0185403 8.76076 162 171 127
1.90562 0.0538853 8.38196 164 176 134
1.55578 0.0619898 8.59205 158 149 114
1.64283 0.077745 8.8177 106 79 55
1.52944 0.125573 8.53226 31 14 3
2.07474 0.18271 8.40867 165 168 130
2.33136 0.276333 7.74635 164 124 110
0.167436 0.356675 8.17279 36 24 9
-0.0618924 0.350757 8.69977 58 28 11
-0.122632 0.388204 8.26732 47 26 4
2.16926 0.538632 7.58256 86 42 15
2.11162 0.555693 7.95909 82 63 48
2.22538 0.609866 7.66145 128 80 64
2.0961 0.627024 7.73322 40 19 8
2.07464 0.790609 7.56413 171 147 136
2.19949 0.819696 7.55465 106 74 58
2.09442 0.887325 7.18445 144 120 104
1.38971 0.918753 6.84472 101 71 67
1.08323 0.908367 6.05043 121 127 104
1.32795 1.01407 6.91747 44 16 10
-0.00199656 1.10508 7.75766 88 60 38
1.11154 0.989782 6.2088 148 110 88
1.30666 1.06694 7.03078 173 144 142
1.81057 1.29362 7.4867 64 36 32
1.65415 1.47046 7.48439 106 82 81
1.27575 1.48004 7.28918 96 68 61
1.27142 1.62103 7.38041 116 90 84
1.80591 1.95631 8.14048 116 80 77
1.24834 1.94924 7.64813 100 71 68
1.26837 2.14108 7.80095 78 27 22
1.25258 2.4064 8.04155 70 28 24
1.15037 2.43888 8.10117 120 74 58
1.21239 2.48687 8.04431 97 60 46
2.41243 -0.106945 7.8921 144 108 77
1.18128 0.0725981 6.92951 87 86 56
2.36117 -0.0731631 8.06091 66 50 20
1.73579 0.0210736 8.77841 160 160 123
1.54163 0.0737585 8.54638 126 117 86
1.64875 0.0767998 8.86288 110 83 58
-0.140032 0.244295 8.45545 164 150 114
2.06033 0.222364 8.26836 164 162 126
-0.148475 0.518403 7.26346 158 155 103
2.08659 0.619603 7.68563 38 19 8
1.78845 0.707703 7.37945 56 53 38
0.292796 0.8397 7.30106 131 124 128
1.41432 0.909932 6.83511 15 6 4
1.07513 0.90811 6.09583 101 110 83
0.885566 0.942438 6.09194 49 17 6
2.13583 0.953838 6.85064 44 46 24
1.59596 0.986348 7.00335 146 107 88
1.25659 1.01685 7.04755 42 14 10
1.30507 1.06642 7.07177 174 144 141
1.72811 1.20869 7.31691 16 8 4
0.0284129 1.37933 8.05989 88 60 40
1.70416 1.34804 7.4579 32 14 10
1.26794 1.61949 7.39746 113 87 81
1.60487 1.75215 7.64656 66 44 42
2.53526 1.62294 6.71475 82 48 25
2.50123 1.65985 6.74202 66 36 12
1.83046 1.97624 8.27628 84 48 41
1.2098 2.17613 7.87264 88 56 48
0.684912 2.29532 7.97559 62 46 32
1.18025 2.37852 7.96642 75 28 15
1.25769 2.3869 7.98187 74 28 24
1.35396 2.43341 8.1221 90 54 50
-0.044111 -1.82167 8.24039 102 108 73
-0.533457 -0.930589 6.88448 62 66 38
2.46616 -0.180399 8.21802 118 100 65
2.38486 -0.172819 8.18392 52 34 8
1.98884 0.000586721 8.33473 164 178 134
1.7423 0.0264346 8.73605 167 174 132
-0.0256389 0.325661 8.33066 56 25 4
-0.0564475 0.370173 8.32208 107 86 66
0.0515589 0.39101 8.0269 102 82 62
2.29032 0.558511 7.63173 113 115 83
0.183471 0.639323 7.23345 58 54 38
2.09951 0.608313 7.80364 44 26 15
-0.0775104 0.715751 6.07123 156 150 120
0.19318 0.761837 7.4626 44 28 20
1.29732 0.778939 7.02603 65 46 31
0.888812 0.935263 6.04668 50 18 8
1.72256 1.02812 7.00985 132 100 88
1.17597 1.12273 6.98447 85 38 15
1.26925 1.48079 7.28859 72 44 38
0.0483919 1.72805 8.44747 124 103 78
1.67129 1.6221 7.63662 38 18 16
1.2662 1.6241 7.3839 102 77 72
2.41986 1.69582 6.9065 71 46 34
2.48078 1.64682 6.65707 65 38 16
1.23306 2.16995 7.85753 101 70 64
0.514924 2.36961 8.31398 142 110 90
1.1382 2.43102 8.04236 149 101 84
1.39284 2.44515 8.16512 138 108 105
-0.629946 -1.06101 6.77468 116 110 88
-0.536205 -0.936088 6.89948 60 64 37
-1.11289 -0.0986722 7.82433 108 86 38
1.747 0.00440644 8.92395 164 168 128
1.82494 0.0683059 8.75425 164 175 130
1.66994 0.0950919 8.73751 116 88 56
2.05415 0.23825 8.0946 166 167 128
0.0083995 0.301427 8.71021 168 166 122
-0.0742087 0.42542 7.31405 139 94 70
-0.108292 0.380893 8.14504 83 61 34
-0.00799262 0.440378 7.35977 167 154 106
0.236342 0.7804 7.43705 109 102 91
1.31228 1.06519 6.9802 175 146 144
1.07856 1.07268 6.01406 37 46 28
0.90957 1.13531 5.83498 93 58 40
1.26782 1.34207 7.20495 48 18 11
1.93403 1.53615 7.92795 64 38 34
2.47549 1.62525 6.72027 170 160 151
1.42282 2.23879 8.01568 110 72 73
1.12934 2.41525 7.97597 147 100 84
0.943356 -0.442969 7.85869 176 179 128
-1.08926 -0.0958892 7.76852 112 90 43
2.36532 -0.155048 8.20405 52 38 13
1.74489 -0.0930387 8.77945 152 152 118
1.53334 0.047397 8.76973 132 122 96
-0.161593 0.201552 7.60528 168 168 118
0.158943 0.332466 8.36177 24 15 4
-0.135325 0.352735 8.67284 154 131 110
0.0276257 0.444812 7.23018 158 146 96
-0.0606174 0.494603 6.91656 158 158 104
2.33244 0.539695 7.71604 130 146 105
0.234038 0.773353 7.42082 84 74 64
1.2676 0.874402 6.023 14 7 4
1.36932 0.904055 6.73609 78 40 28
0.876997 0.924066 6.04778 58 22 11
0.890054 1.01939 5.91024 158 111 82
1.94188 1.24427 7.54374 75 49 44
0.0967389 1.95912 8.67894 100 76 57
2.47032 1.63421 6.61754 73 48 32
1.24834 1.90594 7.52305 100 68 61
1.28418 2.37114 7.98906 66 24 22
1.2716 2.45166 8.11833 135 92 84
3.13939 -1.29592 7.10147 114 117 72
-0.829553 -1.21443 6.77014 56 54 26
3.01392 -1.2349 7.23173 144 142 100
0.0606219 -0.65918 7.35118 110 111 66
2.2097 -0.608194 7.24582 76 84 59
2.10594 -0.518513 7.27984 92 98 79
1.81629 -0.243796 7.37865 101 104 92
0.334481 -0.101157 7.2671 109 111 86
2.11049 0.559779 7.94244 144 120 107
0.195036 0.604348 7.73205 25 15 4
1.61604 1.05736 7.02644 132 89 74
0.0610074 1.50476 8.092 71 56 36
1.53599 2.19699 8.0253 120 90 88
3.14167 -1.29887 7.11373 126 128 82
3.01855 -1.24494 7.24508 173 174 126
-0.509498 -1.10441 6.96402 86 84 46
2.21142 -0.611029 7.25037 74 83 58
2.1113 -0.526165 7.28156 88 95 76
0.031907 1.11835 7.67808 72 46 24
1.61378 1.05578 7.02319 150 109 93
1.2749 1.48477 7.29555 114 88 82
-0.764395 -1.28536 6.86942 163 162 116
2.98998 -1.06992 6.73659 108 110 71
1.93757 -0.368022 7.37442 68 76 59
-0.130724 0.226049 7.37268 109 78 56
2.17665 0.659755 7.73317 130 86 64
-0.171879 -0.846248 7.19098 126 129 90
-0.0569588 -0.754711 7.27791 119 120 76
1.60664 1.78142 7.66872 98 78 76
-0.717907 -1.10027 6.83599 55 58 36
0.209782 -1.33554 7.92372 96 103 68
-1.10943 -0.0931247 7.82335 96 72 26
0.207585 0.771782 7.41241 46 30 22
0.799574 1.3993 7.01795 27 6 4
1.20969 1.98501 7.65566 54 14 6
-0.0708697 -0.76503 7.30574 128 128 84
2.44201 -0.0852199 8.02546 123 90 58
1.18338 2.21954 7.86453 59 18 12
-0.288151 -0.940534 7.09801 114 117 69
2.44047 -0.0686187 7.95339 108 73 42
2.45956 0.0607741 7.84288 140 101 81
2.49616 1.66416 6.73449 82 54 31
2.17836 0.383768 7.73933 124 110 74
2.37353 -0.952922 7.35831 109 111 74
1.35571 2.44923 8.13107 86 52 48
2.44714 -0.0863431 7.99685 114 80 51
1.81418 1.29304 7.49172 54 25 22
1.33275 2.43148 8.12383 103 66 64
1.35769 2.43907 8.14761 76 40 36
2.51064 -0.411328 7.98076 84 76 42
1.24266 2.14968 7.80898 126 96 94
1.36005 2.43411 8.13446 82 48 43
1.44541 2.46087 8.2007 89 54 48
1.19638 2.15388 7.81805 74 25 16
1.43972 2.45732 8.18722 88 54 48
2.42504 -0.22266 8.18204 118 116 78
1.22467 2.16259 7.86316 102 60 53
-0.625732 -1.19221 6.92149 107 104 58
1.68003 1.22469 7.29097 28 10 6
1.09802 1.016 7.4312 65 29 19
1.41237 2.44613 8.25477 108 74 71
2.13867 -0.0956194 8.15269 147 158 118
0.468542 1.38938 9.7833 95 66 56
1.84157 0.541427 5.22453 146 138 108
-1.09018 1.11235 8.90047 107 93 74
2.09257 1.32064 8.58227 47 22 14
0.767302 0.209526 6.82919 131 130 92
2.07855 1.22866 8.30153 113 90 82
2.05541 1.09882 7.68985 70 57 52
1.73289 1.51803 8.19694 39 17 13
1.72796 1.51494 8.19459 52 29 26
1.03866 1.08497 8.6132 94 71 51
-0.604138 -1.16148 7.26447 104 103 62
2.11468 -0.518664 7.27065 88 92 74
1.43531 1.07736 9.10526 88 60 54
-0.865619 -1.30933 6.71676 70 71 50
2.28376 0.337252 7.37298 88 58 44
1.27651 1.48318 7.30558 123 99 96
1.39066 0.915264 6.84644 102 72 65
0.0507902 1.10035 7.59238 101 74 54
0.0678811 1.19811 7.56728 138 126 100
1.18868 1.12367 7.44624 86 45 28
-0.63997 -1.19991 6.93967 106 104 63
1.32605 1.01405 6.9364 64 34 24
-0.629485 -1.19203 6.9127 119 117 72
2.12009 0.57064 7.38004 69 41 23
2.14857 0.84683 8.28783 97 74 54
1.57261 2.01289 7.87794 122 98 94
1.52843 2.24374 8.06285 112 84 82
0.165369 0.680928 7.75412 74 62 42
-1.16093 -0.105907 7.9595 117 100 50
0.159632 0.6864 7.7577 106 97 77
1.25022 1.92056 7.62131 106 82 75
0.0159309 1.01916 7.7477 82 46 22
1.74297 0.96018 7.10204 36 26 11
2.40485 1.64006 6.77626 172 164 155
1.52643 2.21996 8.10408 101 72 68
2.1559 0.950319 6.98311 130 121 101
-0.00999008 1.17946 7.95417 138 121 94
1.45388 -2.5425 8.48758 116 122 66
-1.00569 -1.47434 6.69115 93 94 48
0.0793007 -1.67918 8.11049 116 121 76
3.13728 -1.2178 7.13171 60 62 30
-0.627467 -1.1954 6.92588 94 94 52
2.97753 -1.22141 7.23637 118 122 80
0.116454 -1.48211 7.97077 94 102 67
2.31848 -0.554613 5.358 88 91 51
-0.405267 -1.02732 7.05836 76 79 38
-0.39314 -1.00214 7.04323 88 92 60
2.72778 -0.26101 4.81014 148 152 102
2.69274 -0.23539 4.81262 74 80 37
2.68864 -0.216906 4.733 139 147 102
2.01863 -0.445088 7.33194 84 92 72
0.391325 -0.39884 7.48535 106 112 71
0.430373 -0.216389 7.38537 84 88 58
-0.608615 -0.248778 7.79229 119 118 66
0.532026 -0.137314 7.43675 84 88 56
0.361079 -0.074307 7.21755 57 60 28
2.44204 -0.0720541 8.02265 90 57 24
2.08122 -0.0670215 8.21419 137 148 110
1.78681 -0.0860058 8.63301 148 150 118
0.2109 0.0720413 7.87599 119 124 82
-0.118707 0.219265 7.40678 154 142 104
2.4487 0.182248 7.79534 124 92 72
-0.0401233 0.375231 7.239 144 132 92
2.30957 0.557571 7.9747 104 106 75
2.2368 0.601052 7.75873 129 82 64
0.00590248 0.704713 7.19515 86 45 23
1.29577 1.22533 7.10788 86 53 48
1.82841 1.28829 7.50382 56 26 22
0.0450299 1.45021 8.08262 146 124 102
1.29192 1.33298 7.17493 113 90 85
1.28677 1.35929 7.19816 109 85 80
1.65673 1.48594 7.48223 117 92 90
1.25648 1.7632 7.54792 104 64 56
1.60873 1.79592 7.69936 110 86 83
1.82447 2.2067 8.702 87 51 43
1.71173 2.20838 8.38714 84 52 48
1.26012 2.14609 7.82505 68 23 16
1.21666 2.14968 7.81299 70 25 16
1.53531 2.19619 8.02277 127 98 95
1.63292 2.35534 8.45386 85 54 51
1.20586 2.39777 8.05793 121 85 76
1.3655 2.43581 8.12963 78 40 32
1.18674 2.45687 8.09544 81 36 21
-1.2708 -1.65341 6.63784 90 84 39
-1.01561 -1.47766 6.70419 126 126 76
3.13442 -1.31359 7.19189 102 102 54
-0.651929 -1.20633 6.91222 144 145 96
2.31876 -0.558598 5.36567 104 107 64
2.70493 -0.232782 4.81615 118 126 82
2.72757 -0.228139 4.79806 52 57 10
0.377508 -0.405909 7.52623 106 111 69
-1.074 -0.0786564 7.8126 109 89 38
0.417903 -0.0253238 7.33847 68 68 34
2.49018 -0.144819 8.22512 160 153 118
1.77956 -0.0920627 8.72234 131 132 102
1.91696 0.0507378 8.28715 120 134 88
-0.156119 0.213348 7.47893 120 103 68
-0.161008 0.190571 8.13782 158 144 98
0.0657824 0.370736 8.22683 45 28 10
2.14586 0.471376 8.18469 40 14 0
2.12859 0.499159 8.15491 52 30 14
2.00161 0.786448 7.5096 60 34 18
0.0746823 0.890131 7.29465 156 120 92
-0.0127533 1.05084 7.77759 128 104 77
1.82106 0.974189 6.9999 100 82 68
1.2853 1.35755 7.20787 109 90 84
1.0361 1.25692 5.73206 108 114 98
1.57642 1.42925 7.34009 83 52 48
1.64092 1.61806 7.55645 110 80 76
1.2645 1.75199 7.49477 96 53 46
1.96472 1.89562 8.7188 118 97 89
1.378 1.8534 7.53419 110 66 61
1.25727 1.91802 7.62013 106 76 72
1.21758 2.14578 7.79934 87 38 26
1.32906 2.43783 8.14473 110 71 66
0.815998 1.81444 5.39855 93 84 66
-0.863292 -1.28097 6.72145 90 91 70
0.0730376 -1.68196 8.11484 107 114 70
-0.735251 -1.2351 6.84662 60 61 40
3.14331 -1.24005 7.18622 58 59 32
-0.64075 -1.19885 6.89038 144 145 96
-0.625616 -1.19381 6.92084 90 90 51
0.277911 -0.48268 7.47151 106 109 68
2.00969 -0.435178 7.32475 76 84 62
2.53919 -0.457127 8.27743 85 78 38
2.3439 -0.0591501 8.05628 66 55 22
2.36407 -0.0438695 8.03027 140 136 98
2.37977 -0.00603178 7.91516 158 152 114
1.79802 -0.0595332 8.67283 76 64 36
0.237589 0.0890461 7.96002 158 164 115
-0.162335 0.169886 8.1325 120 94 56
-0.181479 0.189044 8.20396 158 144 98
-0.026361 0.37915 8.2218 129 111 94
-0.05956 0.42912 7.25921 94 58 30
-0.071922 0.686047 7.26094 152 130 108
2.09463 0.794714 7.52177 54 22 2
0.0804023 1.02856 7.53917 76 40 15
1.18096 1.11373 6.95463 85 38 16
0.032335 1.38141 8.08244 56 20 4
1.67668 1.22058 7.27963 30 6 3
1.0599 1.14557 5.83079 102 110 90
1.28508 1.33805 7.18933 107 84 78
1.26084 1.74979 7.50381 94 51 44
1.37112 1.86087 7.58567 104 60 56
1.86432 1.93992 8.26448 66 27 16
1.25177 1.96505 7.6633 115 93 90
1.82583 2.19345 8.62414 86 48 40
1.21137 2.15108 7.81461 74 27 16
1.2383 2.15156 7.82284 114 80 72
0.862494 2.23281 7.91841 116 78 68
1.24306 2.40972 8.07552 68 26 19
-0.0317584 -1.80739 8.21077 92 100 62
3.13875 -1.2348 7.17341 58 60 32
-0.628292 -1.19196 6.92121 94 94 58
2.99415 -1.22486 7.21389 69 69 26
2.69624 -0.240729 4.83262 72 78 36
2.01288 -0.439662 7.31773 78 84 63
1.93256 -0.354847 7.32777 59 68 49
2.3429 -0.0625792 8.11768 86 78 43
1.7335 0.0221663 8.7999 154 154 115
0.013676 0.323977 8.1839 55 22 5
0.199782 0.34087 7.99704 133 132 98
0.856957 0.419295 6.49792 64 66 44
0.834536 0.434288 6.56778 33 35 12
0.035387 0.704136 7.09649 95 58 36
0.120893 0.743479 6.86623 162 142 118
0.400585 1.03789 7.13029 84 38 16
1.72413 1.03871 7.10979 105 70 56
1.17481 1.11524 6.94815 74 28 7
-0.00302979 1.26266 8.01535 93 69 46
1.03097 1.26606 5.73508 112 116 98
1.86674 1.73862 7.99595 98 70 70
1.37206 1.85579 7.57801 104 60 56
1.81686 1.99149 8.33869 60 29 24
1.25545 1.93126 7.63156 114 88 86
1.19067 2.17629 7.89876 66 23 12
0.832572 2.31332 8.19219 90 56 52
1.20155 2.36617 7.9218 69 24 12
1.35743 2.44177 8.15439 78 40 34
-0.555678 -2.24521 8.46608 78 82 30
3.0878 -1.21275 7.04777 67 64 30
-0.723236 -1.10388 6.83659 48 52 28
2.69848 -0.245409 4.8548 78 86 43
0.725017 -0.159329 7.52861 162 163 122
-1.12048 -0.0987767 7.83617 96 74 26
2.34603 -0.0373221 8.0336 157 162 121
1.84348 0.0793652 8.53638 150 166 123
-0.123227 0.252843 8.38279 146 134 96
0.103672 0.377291 7.99765 47 25 9
2.10866 0.555596 7.91677 90 64 50
0.233673 0.808321 7.38837 95 84 76
0.0361819 0.894326 7.41128 159 122 95
1.08597 0.904057 6.03518 110 119 94
0.0534735 1.04209 7.6096 89 56 30
-0.00248725 1.09906 7.7522 94 68 46
0.0444304 1.43438 8.07009 136 114 89
-0.394044 1.78169 5.31733 125 114 98
1.39647 2.46581 8.28128 134 98 92
1.42653 2.47418 8.23874 90 58 50
2.42919 -0.212569 8.1561 154 158 114
2.3789 -0.17024 8.18225 50 34 8
1.834 0.0909807 8.38579 148 160 117
-0.0708052 0.372243 8.48724 124 116 91
2.17584 0.6861 7.72234 108 66 40
1.84992 1.01512 7.05179 152 132 131
1.17672 1.12031 6.97084 85 38 16
-0.00910723 1.45397 8.21305 146 128 102
1.60693 1.76906 7.66889 78 56 54
1.94166 2.01841 8.64805 72 40 30
1.25964 1.92755 7.56195 98 71 66
1.18912 2.1927 7.90712 64 19 11
-0.936229 -1.40938 6.75858 104 110 66
3.14687 -1.35736 7.31661 136 136 84
1.75676 0.0213966 8.75302 154 164 122
-0.199903 0.17408 8.18796 152 142 96
2.09503 0.660685 7.71525 108 68 44
0.140983 0.85485 7.46099 82 50 32
1.83207 1.01712 7.10281 142 117 112
1.32219 1.05222 6.94772 160 132 128
1.10375 1.046 6.1353 166 125 98
1.24735 1.92927 7.59673 93 56 50
0.831594 2.27269 8.02146 87 48 40
-0.335265 -0.968254 7.20745 91 92 49
2.25956 -0.224204 8.21484 150 164 120
0.827074 0.86528 6.36911 107 80 58
-0.164384 -0.843128 7.18119 110 114 71
-0.0436378 -0.749166 7.2619 112 115 70
1.43531 2.45238 8.31284 112 78 72
2.0039 0.254702 8.2834 79 66 39
2.12036 0.871472 6.76315 116 94 80
1.82732 0.974187 6.97656 102 84 69
1.19965 2.38978 7.99335 76 30 18
0.651838 -0.680534 7.58715 104 112 75
0.0687114 1.03518 7.55958 92 56 30
-1.2654 -1.63308 6.61942 80 72 31
-0.824135 -1.21973 6.78141 53 53 28
1.27466 1.48059 7.29696 89 62 56
2.51941 1.63966 6.72354 93 58 37
3.12427 -1.27477 7.21373 56 57 23
2.02382 0.258276 8.18028 104 86 60
-0.123267 0.370602 8.23886 55 32 12
-0.921016 -1.31536 6.75353 44 50 28
0.049071 0.242236 7.70387 108 94 58
2.43399 0.201286 7.80954 142 104 92
1.47333 2.42042 8.35376 66 30 27
1.31584 1.05623 6.96604 159 128 124
0.847556 2.23739 7.97011 100 52 42
-0.811845 -1.32416 6.80442 124 122 80
-0.0226275 0.688166 7.10222 140 129 102
-0.282081 -0.941445 7.1126 112 111 64
2.09029 0.821197 7.44539 54 26 8
-0.28108 -0.937994 7.10988 100 98 54
2.50812 -0.464831 8.13295 73 70 28
0.0972012 0.934359 7.22224 94 48 25
2.49792 -0.4358 8.06372 72 65 21
2.52155 -0.449702 8.04547 118 115 75
-0.105584 1.39898 14.7609 116 88 71
2.51067 -0.466278 8.10439 91 88 46
0.598201 1.33896 9.73991 140 109 91
-0.64103 -1.19362 6.93065 90 90 60
-0.622088 -1.19206 6.90797 105 105 65
2.07043 -2.09756 8.03774 96 104 60
1.89291 0.751984 7.22805 46 42 33
2.13347 0.935885 7.49976 116 94 84
1.9599 1.63055 8.62229 72 51 48
0.144826 2.28545 9.59384 112 98 87
-2.55649 0.00374932 16.4797 134 128 104
1.52661 2.24258 8.07525 120 96 94
-0.151805 0.164637 7.59742 154 148 99
0.420604 0.371306 6.63212 102 82 51
0.85903 0.394412 6.53982 40 41 10
2.07349 0.798329 7.53249 158 132 122
1.71037 1.21456 4.75281 78 48 44
1.62129 1.73238 7.64879 126 102 100
1.41719 1.85463 7.61464 120 76 68
1.24125 2.1938 7.85184 108 80 79
-0.867751 -1.27933 6.72926 92 94 75
1.21138 -0.717201 6.9692 115 124 72
2.0865 0.785123 7.61119 66 35 16
1.53897 2.20178 8.02799 122 94 90
3.14216 -1.30019 7.12277 159 160 112
2.46617 0.0880015 7.76378 122 84 56
1.71665 1.21245 7.38272 33 16 12
1.61237 1.76832 7.66014 104 84 82
-0.401554 1.79835 5.34171 100 90 70
2.06115 -2.12488 8.06705 93 101 52
2.01833 0.767955 7.52891 86 63 50
1.8563 1.75076 8.0309 66 42 40
1.83478 1.97755 8.27969 49 20 15
1.56673 1.9984 7.89364 104 76 74
0.0775302 1.49225 8.03709 62 42 20
0.0210851 0.159709 7.87541 100 94 63
2.0793 0.887662 7.33553 104 86 72
-0.0630322 1.2775 8.23441 110 88 64
0.0208576 0.162694 7.87358 99 92 60
2.11369 0.490021 7.61694 41 18 4
2.16126 0.923717 7.43926 106 87 74
0.0529348 1.11728 7.68505 124 96 73
2.05799 1.53515 8.31927 84 62 49
2.36897 -0.0148596 7.94078 146 146 106
2.11359 0.484138 7.69904 40 18 5
0.040975 0.979345 7.48991 150 122 94
0.0440793 1.43781 8.07938 130 110 84
1.82909 2.18662 8.5832 94 63 52
1.01397 -0.309423 7.27376 149 158 106
2.11807 0.454799 7.99816 34 13 2
2.15734 0.944695 7.42054 103 88 73
0.849625 2.27264 8.01966 106 76 74
2.20817 0.356463 7.85652 148 158 112
2.20403 0.392763 7.7645 136 127 86
2.20025 0.825087 7.59578 106 72 55
2.07949 0.870756 7.50456 149 122 110
2.1939 0.968055 7.98851 127 116 102
0.00308847 1.0992 7.72906 127 108 84
2.03733 1.52848 8.20583 85 49 38
0.116338 -0.0577107 9.47382 156 162 110
0.20214 0.690005 6.3683 134 133 101
0.0289157 1.04124 7.70302 88 56 32
2.191 0.959474 7.90187 126 113 100
2.04557 1.53662 8.26473 84 52 39
0.789711 1.839 5.49955 114 106 88
2.43119 -0.0962142 7.99115 136 102 72
0.27357 0.414117 7.11911 140 126 99
2.20237 0.346649 7.79299 150 162 115
0.37957 0.637867 6.82007 38 30 9
0.205271 0.690647 6.35505 134 133 101
0.427181 0.740618 5.82745 148 137 104
2.03314 0.705554 7.46254 44 19 9
1.99249 0.803874 7.36279 60 40 22
2.50221 1.61644 6.62911 92 60 36
1.43472 -2.5867 8.61255 112 114 62
-0.738207 -1.23457 6.83313 48 52 30
-0.750221 -1.22323 6.80709 98 100 80
-0.707969 -1.20762 6.83461 76 80 60
0.229489 -1.31457 7.89165 92 102 67
-0.407815 -1.03023 7.06286 77 80 37
0.151973 -1.23024 7.81005 128 128 80
-0.289638 -0.942056 7.12713 83 85 44
1.91785 -0.342304 7.35066 86 92 76
0.437301 -0.205264 7.41427 80 82 54
2.47461 0.0218002 7.91203 134 100 80
-0.151854 0.220478 7.42348 78 56 30
0.911064 0.376791 7.67004 32 24 4
0.888109 0.540432 6.39624 91 91 65
-0.0644541 0.596993 7.92054 112 96 84
1.10909 0.598176 6.29922 116 126 96
0.197052 0.870511 7.34826 62 29 12
0.210456 0.948245 7.31004 83 44 16
1.10148 0.901559 7.12437 35 16 9
1.0968 0.965743 6.24233 131 97 70
1.09204 1.04479 6.14725 149 111 86
0.921537 1.24905 7.07865 160 114 103
1.57976 1.42941 7.3339 116 83 77
1.86539 1.75359 8.04696 124 98 96
1.41775 1.84959 7.59577 118 71 65
1.80102 1.96417 8.19945 126 97 94
2.48597 1.57043 6.3849 157 140 131
1.26324 1.94411 7.67759 63 26 22
2.53675 1.6177 6.64296 122 99 79
0.821027 2.02001 7.77693 130 95 86
1.8302 1.98269 8.18506 46 16 10
1.25096 1.97529 7.67737 120 92 90
1.5776 1.97256 7.84758 114 80 80
1.81203 2.2272 8.75046 90 53 46
-0.433707 1.80893 5.37816 104 90 75
1.24226 2.14855 7.81127 125 95 92
0.876436 2.26018 7.98364 56 16 12
1.23517 2.44625 8.07676 80 36 24
-1.2795 -1.66187 6.64702 85 82 34
-0.00916015 -1.75999 8.18738 121 126 82
-0.720593 -1.21422 6.83926 83 86 65
-0.516447 -1.1107 6.99873 108 107 63
-0.296482 -0.943897 7.13519 86 88 44
0.634364 -0.681896 7.632 103 110 76
0.495418 -0.309041 7.58259 92 99 46
2.48888 -0.16494 8.14553 134 130 94
0.817556 0.125015 6.90758 100 103 63
-0.173036 0.175564 8.15794 142 120 80
-0.116819 0.244606 8.3648 142 127 94
0.859234 0.431816 6.49832 35 30 8
0.897185 0.372414 7.64439 36 20 6
1.09054 0.46541 6.46722 98 108 78
1.11254 0.597117 6.29044 115 124 94
1.09069 0.728653 6.21304 87 102 72
0.217702 0.938728 7.27336 108 66 39
0.0885552 0.955208 7.28738 114 71 44
1.10587 0.923898 7.09296 94 67 57
1.07399 1.00572 5.97481 94 102 80
1.08852 1.04479 6.16688 156 116 91
1.2806 1.1049 7.02544 73 36 22
1.09366 1.10078 5.99289 54 58 39
0.92045 1.24789 7.07633 148 102 90
1.29163 1.22187 7.10888 75 38 32
1.28678 1.33571 7.18732 100 74 70
0.863258 1.40135 7.23121 94 48 40
0.748007 1.54996 7.41371 120 88 79
1.2781 1.48449 7.29241 114 88 82
0.805812 1.55353 7.35571 45 14 8
1.91863 1.52612 7.93411 97 66 64
1.63798 1.62018 7.57641 108 78 73
0.811231 1.80719 7.62496 51 16 11
2.47974 1.615 6.66635 160 144 134
1.26928 1.94022 7.65012 63 26 22
1.80215 1.98567 8.1883 110 84 82
0.813169 2.05829 7.83325 107 81 76
2.5117 1.65354 6.71453 96 66 48
1.22578 1.99263 7.686 50 12 4
1.72215 2.21171 8.44953 121 92 90
0.865564 2.26839 8.02042 72 31 23
1.26224 2.17628 7.71216 74 38 34
1.65262 2.34256 8.34354 93 60 55
1.25508 2.4385 8.08904 93 46 33
1.29468 2.47627 8.21208 146 110 106
-0.727349 -1.21467 6.83811 81 85 62
-0.0398728 -0.746318 7.24232 105 108 64
0.557085 -0.784238 7.68892 86 96 56
1.92491 -0.345714 7.34431 76 81 64
1.17717 0.0627291 6.99161 96 94 58
-0.102954 0.249544 8.32766 138 123 90
-0.153574 0.369303 8.33158 51 28 10
-0.00577276 0.372495 8.179 126 106 90
0.897374 0.369011 7.63248 36 19 4
1.07894 0.416765 6.65635 30 28 12
1.09716 0.470239 6.44056 106 117 86
0.869732 0.539353 6.45255 89 90 66
-0.000429953 0.705858 7.19557 97 56 36
0.158913 1.09401 7.41976 118 90 68
1.33331 1.09431 7.01712 82 46 32
1.08509 1.10263 6.00902 54 58 39
0.921482 1.24711 7.07823 134 88 76
0.762157 1.54928 7.38675 110 81 72
1.86979 1.74258 8.02298 102 76 76
1.79623 1.97258 8.178 92 60 58
1.76912 1.99012 8.20737 85 52 49
0.812658 2.05334 7.83252 120 93 88
1.22338 1.98585 7.66927 54 12 6
1.72965 2.21066 8.39588 123 94 92
1.2885 2.11386 7.65955 102 66 62
0.836315 2.28906 8.05276 116 87 82
1.64386 2.34981 8.39462 87 55 49
-0.564295 -2.25797 8.49902 96 99 42
-0.51516 -1.10809 6.99167 92 92 51
-0.204976 0.0907363 7.60266 70 52 32
0.122208 0.938523 7.18427 100 56 28
1.12049 0.963592 6.18239 114 84 58
0.920086 1.24854 7.06893 148 102 90
1.60485 1.78947 7.71706 112 94 92
1.79425 1.97151 8.19463 89 59 56
1.83415 1.96844 8.18432 42 15 10
2.42832 1.64851 6.78343 158 146 139
0.830452 2.02104 7.75756 125 95 88
1.7778 2.00402 8.12423 53 24 20
1.72302 2.20534 8.33006 108 74 74
0.850115 2.27597 8.00141 112 85 80
1.60483 2.36299 8.45098 114 84 82
1.13984 2.44603 8.09105 150 99 82
1.3635 2.43822 8.13602 84 46 38
-0.580076 -2.26955 8.53675 86 90 32
-0.637162 -1.07682 6.79128 90 90 67
-0.556366 -1.11156 7.10777 86 89 52
-0.4554 -1.03532 6.98445 50 55 24
-0.419174 -1.03392 7.08211 68 71 30
-0.33396 -0.961317 7.19616 91 92 48
2.31194 -0.714715 7.29265 78 83 60
0.0608783 -0.654445 7.32859 94 100 57
2.09811 -0.525215 7.31864 56 64 42
0.376062 -0.403481 7.53315 114 118 74
0.7568 -0.0461043 7.53798 48 54 13
1.16905 0.0599562 7.00198 82 81 43
-0.193917 0.0880368 7.57473 85 66 48
-0.209408 0.173187 8.23011 161 150 103
0.188309 0.590809 7.31008 116 100 83
1.08977 0.594785 6.33654 89 98 64
1.12717 0.875917 7.06626 30 13 8
0.153802 1.08974 7.425 102 68 48
1.01346 1.07683 6.39838 132 96 72
0.918755 1.24333 7.06482 122 74 62
0.842676 1.41523 7.13335 22 4 2
1.05341 1.51103 7.30506 42 8 4
0.810123 1.79567 7.53692 100 71 66
1.85994 1.94595 8.28448 56 24 16
1.7574 2.01844 8.17162 53 24 21
0.531735 2.33271 8.28793 76 35 19
0.850787 2.27233 7.98732 100 72 68
3.11568 -1.71288 8.71242 96 102 60
-0.470737 -1.07048 6.97204 112 113 72
0.174712 -0.563533 7.38959 94 96 58
1.91728 -0.354236 7.36087 44 49 32
-0.181531 0.0998819 7.55826 67 47 28
-0.183471 0.177109 8.15533 156 143 98
-0.702783 0.605075 9.57898 74 62 48
-0.00697188 0.747603 7.22075 163 141 117
1.1335 0.842148 6.97766 61 40 29
0.0466308 0.944057 7.33727 94 50 22
1.08068 0.975852 6.2824 153 112 84
1.6534 1.468 7.44136 72 46 44
2.52265 1.61886 6.68069 82 41 16
1.27943 2.38771 7.94201 78 31 22
-0.0142745 -0.685342 7.4712 78 82 48
0.163846 -0.566424 7.4041 104 107 67
2.43601 -0.0867567 8.0336 120 85 53
-0.0958452 0.350465 8.17842 66 38 20
0.0205576 0.600055 7.68005 112 96 78
0.00900481 0.677531 7.005 101 97 57
0.404897 0.690402 6.95269 37 22 8
1.05187 1.51286 7.31061 46 10 4
1.689 1.61223 7.59449 34 16 13
0.824578 2.02357 7.7593 115 77 70
1.15669 2.22737 7.87858 51 15 8
1.18215 -0.729922 7.04476 98 104 54
-0.197003 0.0890739 7.56774 86 66 47
0.0551484 0.336731 8.1734 49 22 10
0.376851 0.808668 7.14963 33 24 16
0.032987 0.928369 7.30316 108 64 44
0.0855123 0.996234 7.37181 161 138 110
1.20044 1.15819 6.99095 171 120 98
0.785861 2.03292 7.8377 89 38 28
0.797093 1.79222 5.44465 150 140 126
-0.114874 -1.89555 8.24114 120 122 77
1.20123 1.58368 7.24615 106 58 48
1.60808 1.79665 7.69249 106 82 78
1.23566 1.98894 7.66438 54 12 4
1.76415 2.24502 8.60302 87 60 60
1.70069 2.21642 8.38545 68 36 32
0.228282 -1.32034 7.88323 94 102 68
2.09301 -0.474464 5.48047 120 120 78
1.18732 0.0661393 6.94527 100 99 62
1.09776 0.586859 6.32421 92 104 71
-0.0878203 0.684536 7.25897 136 117 88
-0.473681 0.964444 9.42678 18 12 10
1.20626 2.23022 7.88185 52 16 8
1.36436 2.49457 8.15562 134 99 90
1.11061 0.597497 6.28508 97 108 74
-0.0699619 0.680484 7.23461 152 134 106
0.878087 1.39433 7.19395 94 50 39
1.65516 1.47887 7.47268 110 87 85
1.82972 1.96788 8.18037 50 22 19
1.57322 1.43438 7.34388 93 58 53
1.7776 1.97709 8.15156 76 44 42
1.7013 2.22194 8.38391 76 42 37
1.19906 2.45821 8.14168 92 50 40
3.1485 -1.2365 6.93592 157 164 110
1.27954 1.34706 7.18755 80 54 49
1.27326 1.47786 7.29505 104 78 72
0.012483 0.637738 7.36371 122 105 67
-0.0384388 0.68206 7.11376 115 108 75
1.00948 1.74397 5.53895 94 89 62
1.22442 2.17053 7.84411 95 58 50
2.58298 -0.289509 4.88136 100 109 70
0.0551368 0.360971 7.79873 106 88 52
2.05356 -2.1044 8.03606 102 112 66
-1.00119 1.97732 11.3051 128 111 96
1.74902 2.193 8.38362 104 73 72
2.07491 -2.08125 7.99832 92 106 56
2.85823 -1.18131 7.26101 98 102 54
1.81218 2.18088 8.58757 94 60 54
1.46965 -2.5931 8.57964 83 92 38
2.0692 -2.08199 8.01756 74 90 44
1.45764 -2.58654 8.58934 101 110 57
2.86017 -1.18113 7.26059 120 126 76
1.09178 0.406285 6.6145 44 41 25
1.16436 1.12676 7.0275 70 25 8
1.79704 2.02737 8.57119 82 48 28
2.4264 -0.229588 8.20309 153 159 114
1.38035 2.48963 8.13713 116 80 71
0.166455 0.673935 6.36862 110 106 82
-0.837028 -1.34092 6.82092 118 116 76
0.246268 0.626417 7.15626 102 97 73
1.11049 0.720005 6.51115 108 105 84
-1.27398 -1.62634 6.61737 78 74 34
-1.03419 -1.49307 6.72339 138 137 86
0.238553 1.19658 7.67538 52 16 6
1.65582 2.3345 8.36458 76 47 42
1.65801 2.33526 8.37211 95 66 61
-0.624494 -1.18161 6.94385 146 146 100
-0.881368 -1.35221 6.72445 63 65 39
-0.0584988 0.362262 7.29679 143 133 86
-0.0615866 0.353156 7.29411 130 119 76
-0.901233 -1.28937 6.71489 44 46 25
-0.0780872 0.343762 7.31717 115 102 61
-0.629439 -1.19801 6.91908 131 132 87
-0.897667 -1.37452 6.7269 52 56 28
0.0839876 1.1495 8.00186 62 26 15
2.27442 -0.224245 8.2329 151 161 116
1.07093 0.219147 5.60737 74 73 34
1.21498 2.23018 7.86319 59 19 10
-0.851065 -1.24127 6.71196 58 57 34
2.27467 -0.223984 8.28179 137 144 104
1.64043 2.31957 8.38054 106 78 74
1.02793 -0.313506 7.31713 123 126 84
0.484223 2.34256 8.3706 77 34 16
-0.980233 -0.0822922 7.67639 114 90 40
2.85046 -1.17931 7.24852 156 158 106
-0.560366 -0.945289 6.91085 67 66 40
2.43279 -0.208973 8.15761 149 154 112
1.42056 2.4677 8.23295 102 68 64
-0.760964 -1.27521 6.93311 148 150 108
-0.750963 -1.15512 6.7916 78 81 59
0.440282 -0.991913 7.76619 93 105 62
0.622886 -0.687472 7.67754 109 116 82
2.51236 -0.455898 8.04617 104 102 56
0.343294 -0.0900845 7.17105 67 66 28
0.82401 -0.0173219 7.36962 58 58 12
-0.176499 0.102476 7.49633 74 54 32
-0.272456 0.0837977 7.95498 104 84 61
-0.110559 0.251976 8.3493 162 150 112
0.634393 0.507201 6.66747 80 85 67
0.119924 1.01548 7.3944 160 138 110
1.2719 1.477 7.31022 118 92 88
0.762536 1.5551 7.3876 120 92 82
0.40497 2.07466 8.20423 120 79 66
1.77286 1.9979 8.261 52 24 21
0.482052 2.3415 8.365 73 33 20
1.1572 2.44743 8.11032 140 90 71
2.99125 -1.23598 7.24262 94 96 50
0.576348 -0.770502 7.64238 90 100 61
0.480117 -0.159953 7.55909 86 90 58
0.350278 -0.0930858 7.14957 62 62 26
0.722355 -0.157517 7.5472 164 162 118
0.446346 -0.00817043 7.3115 96 97 62
0.828358 -0.0191769 7.35544 56 58 12
0.818148 0.0633803 7.04202 103 106 66
0.857294 0.40737 6.52385 70 74 48
0.0638573 0.903684 7.36013 160 120 89
1.11053 0.900025 7.09957 28 13 6
0.914061 0.892558 6.06567 86 76 71
1.08873 0.903945 6.03596 116 121 98
0.896903 0.939758 6.08329 116 94 58
1.0491 1.14253 5.86055 102 110 88
1.85761 1.75773 8.10272 104 84 82
1.28955 1.90166 7.5711 103 62 52
1.78766 1.97197 8.14095 72 44 40
1.25421 1.96485 7.65102 114 90 87
0.474415 2.34564 8.37419 88 52 36
1.53386 2.23171 8.02979 108 84 82
3.16518 -1.30014 7.07108 155 161 112
0.115507 -1.48144 7.96196 100 106 71
0.214058 -1.32804 7.92293 102 110 76
0.829741 0.129906 6.86657 82 86 48
0.0874094 0.889621 7.2805 138 98 68
1.37208 1.85817 7.58918 110 63 56
2.38018 1.62722 6.86002 100 86 76
1.57248 1.9794 7.86847 114 86 86
3.15874 -1.28233 7.01926 136 140 92
3.13838 -1.23375 7.16113 52 56 34
0.0826978 -1.5137 8.02923 100 105 72
2.97291 -1.23588 7.27341 160 164 114
2.10314 -0.526205 7.32308 79 88 68
0.372632 -0.409451 7.54496 110 116 71
0.691397 -0.181654 7.62459 163 162 118
0.853606 0.407364 6.53377 86 89 64
0.976215 0.756587 6.18196 94 100 62
1.65353 1.47288 7.50326 116 100 98
0.784802 1.79892 7.5998 94 62 56
3.13246 -1.33823 7.25774 126 128 78
-0.497623 -1.09582 6.96312 75 73 37
0.63563 -0.684845 7.61333 102 109 75
0.862298 0.411252 6.50732 94 98 73
0.879823 0.891181 6.12943 60 47 43
0.785278 1.56585 7.43076 30 7 1
1.78036 1.58023 7.8182 38 14 7
1.64963 1.63856 7.66733 33 13 12
0.77167 2.07169 7.94276 106 76 71
0.29736 -0.473541 7.41185 128 134 91
0.349024 -0.417903 7.57815 119 124 82
0.799595 0.142715 6.85387 60 66 32
-0.0388953 0.242895 7.20028 90 72 42
0.415478 0.333083 6.918 158 144 99
2.38009 1.64822 6.89117 98 74 58
0.232317 -0.552543 7.01425 106 112 72
0.71802 -0.181163 7.46005 164 165 118
0.506339 0.39664 6.88303 56 26 12
1.1883 0.918816 6.88157 38 22 15
1.02413 -0.399085 7.33204 158 165 116
-0.257026 0.152953 8.28639 127 103 65
1.27562 1.33812 7.21446 96 74 68
1.01556 1.73731 5.53519 118 108 88
1.48539 -1.40261 7.82863 146 154 106
0.714341 -0.160389 7.59379 144 144 100
1.41171 -0.753773 7.84693 136 140 102
0.00245711 1.26952 8.01237 130 112 88
0.827994 1.76641 7.43983 110 82 75
1.81841 1.9967 8.28871 56 24 19
1.34951 -0.845205 8.278 130 132 94
2.52752 1.63647 6.80662 86 56 32
1.18035 -0.726054 7.04196 102 110 56
1.59356 -0.358346 7.54062 106 112 80
0.404288 0.641724 6.42181 114 94 67
1.28585 1.06706 7.10443 154 126 121
1.9415 2.0211 8.71951 74 40 28
1.46213 -1.47653 8.00894 128 135 90
1.1748 -0.736931 7.07635 102 110 56
1.15309 -0.689037 7.34599 138 146 96
1.42762 -0.74281 7.71983 121 128 86
1.14214 0.0426329 7.11526 90 86 46
-0.164978 0.18789 7.5797 140 136 92
1.04762 0.187143 7.18002 38 44 18
0.30932 0.809337 7.18206 47 34 27
2.37567 1.64639 6.77485 98 74 58
1.61688 -0.392593 7.49933 120 125 100
0.907706 0.88916 7.27676 18 10 7
-0.00809705 -1.78081 8.15928 104 108 64
0.458317 -1.23044 7.91114 110 121 72
0.213621 -1.08557 7.81076 110 114 70
0.529488 -1.11117 7.8921 108 116 67
2.10439 -0.524326 7.3083 76 82 62
0.691328 -0.028125 7.52391 47 52 14
1.09943 0.434465 6.57016 22 30 12
0.932905 0.512522 7.24822 66 72 60
-0.00606964 0.683779 7.11655 132 113 80
1.15138 0.696761 6.5863 68 68 55
1.12765 0.726679 6.13611 92 104 76
1.06162 0.962713 6.31994 129 96 68
2.16156 0.900659 7.61353 72 45 35
1.08913 1.00446 5.93537 108 114 92
1.32605 1.01723 7.01263 46 18 6
1.15738 1.11552 6.9294 91 44 18
1.34405 1.092 6.99482 64 27 10
0.740295 1.27023 7.15692 121 88 78
0.74474 1.27785 7.19966 45 11 4
0.725889 1.28273 7.19437 114 84 77
1.99402 1.01231 4.26854 89 72 56
0.893602 1.39362 7.16524 114 66 60
0.591454 1.46537 7.36822 132 92 74
0.806156 1.8046 7.61666 47 13 10
1.76897 1.97534 8.24044 55 25 24
1.27252 1.99155 7.68161 58 16 8
1.76063 2.18791 8.34679 83 54 52
1.77142 2.23653 8.58624 96 73 69
1.69608 2.22866 8.4068 60 27 27
1.65554 2.34489 8.32087 72 44 39
1.20517 2.39827 8.00655 82 36 24
1.25944 2.44164 8.09109 118 71 60
2.97531 -1.18406 7.15081 154 156 110
2.87421 -1.20509 7.30842 152 154 106
2.85425 -1.18903 7.29623 102 104 56
2.20183 -0.547772 7.31059 55 64 46
0.934636 0.512995 7.24197 53 60 48
-0.0709822 0.629916 7.24035 104 80 60
0.0590877 0.622484 7.13298 114 82 67
-0.00424521 0.705342 7.20298 98 56 35
0.066134 0.760789 7.26531 90 56 32
1.32694 0.922817 6.7833 26 8 2
0.913342 1.13473 5.86945 128 118 90
0.7781 1.42709 7.2967 36 8 4
0.582786 1.46623 7.37711 106 66 48
1.65385 1.61365 7.60695 66 35 31
1.60728 1.64378 7.58671 49 16 10
1.79267 2.24359 8.83427 106 74 66
1.24407 2.14926 7.80593 115 79 74
1.78819 2.22668 8.52869 106 82 78
1.22393 2.45589 8.09418 80 40 32
3.14002 -1.30636 7.1657 80 87 44
2.99545 -1.22895 7.21837 112 114 66
1.21382 -0.723648 6.97557 114 119 70
2.1078 -0.520137 7.28874 73 79 58
0.463277 -0.290849 7.4985 78 82 49
0.82777 0.0618529 7.01143 77 79 44
1.09901 0.429593 6.57469 26 32 14
0.923676 0.511772 7.25429 60 66 54
0.032628 0.624527 7.18652 120 88 72
0.147193 0.604035 7.10306 115 106 64
-0.132741 0.703575 6.11406 124 120 78
-0.0856995 0.926845 5.63882 80 78 58
2.13091 0.889938 7.46628 100 73 66
1.37537 1.0074 6.80552 66 37 28
1.09189 1.0304 5.89723 102 104 80
1.06569 1.13754 5.81799 100 103 81
0.735632 1.27633 7.17107 118 85 76
0.789128 1.42385 7.26661 40 12 6
1.655 1.63499 7.61153 32 15 14
0.815224 1.81177 7.62796 50 14 10
0.818011 2.02656 7.78988 130 87 78
1.25502 1.93264 7.63646 119 96 91
1.83818 1.97594 8.16343 41 15 12
1.76996 2.20717 8.66933 96 60 54
0.889716 2.26087 7.97212 61 18 10
0.856367 2.27982 7.99927 113 88 86
1.77216 2.23987 8.55036 87 62 60
1.21763 2.45261 8.10959 92 51 44
1.09267 2.48713 8.10806 107 60 42
1.4198 2.47338 8.24238 95 60 54
-0.815472 -1.20632 6.76429 50 50 26
0.217936 -1.32436 7.89954 93 100 67
-0.421721 -0.935938 6.9595 69 71 49
1.20654 -0.723665 6.99212 104 110 60
0.507973 -0.305514 7.55916 95 100 50
1.22262 0.0760673 6.861 82 80 44
1.07886 0.422809 6.6191 25 30 14
1.11752 0.486257 6.38462 98 106 76
0.0756766 0.62001 6.98295 118 91 69
0.0209588 0.742151 7.18415 155 126 102
1.10849 0.739772 6.16065 107 116 90
0.731766 1.27414 7.17147 112 79 70
0.695649 1.44642 7.33859 23 6 0
1.61772 1.63818 7.55183 53 18 12
1.25268 1.95562 7.64852 106 82 76
1.81528 1.98627 8.24383 49 22 20
1.07247 1.73111 5.41072 92 84 58
1.7275 2.27322 8.64176 90 64 62
1.16434 2.24171 7.93282 50 17 12
1.10137 0.421185 6.56087 42 48 28
-0.0163453 0.637234 7.13132 120 99 68
0.0154703 0.742805 7.18293 160 133 110
0.0652981 0.747838 7.23539 86 57 40
1.34242 0.93666 6.77777 100 65 56
1.31919 1.0153 6.95573 73 44 35
1.18977 1.12901 6.96677 70 22 6
1.06528 1.1411 5.80825 93 95 73
0.745549 1.45081 7.39601 23 8 4
1.21374 1.6488 7.43186 55 18 10
0.00229379 0.412464 7.25252 120 109 56
1.05306 0.412868 7.65266 126 121 112
-0.00333625 0.634215 7.09115 91 78 50
-0.0992822 0.682412 7.23024 118 112 72
1.10846 0.734881 6.15704 83 94 64
-0.347396 1.75704 5.27898 144 132 114
1.64306 2.35018 8.39504 81 52 48
1.60535 2.35477 8.30799 122 98 96
1.47203 2.43638 8.35256 77 40 34
-0.99247 -1.43109 6.80632 66 72 38
1.02724 0.407075 7.68114 118 114 101
-4.27953e-05 0.643919 7.05156 107 100 64
1.08324 1.50533 7.24431 36 4 2
1.26719 1.62154 7.38469 94 63 58
1.07113 0.405596 7.61424 124 120 112
0.803494 1.58082 7.43025 26 8 4
1.04928 1.72275 5.47529 113 104 82
0.0554856 0.449822 7.01072 136 98 74
0.359627 0.621879 6.32412 64 66 50
0.021441 0.626576 7.18903 128 92 72
0.981191 0.918152 7.51455 76 50 42
0.22658 -1.3179 7.88577 92 102 67
0.239471 -1.07682 7.76317 135 136 88
1.23928 1.98501 7.63582 54 12 4
-0.06398 0.459553 7.1871 147 101 78
-0.0438442 0.630282 7.18819 104 82 61
1.81034 0.763057 5.18442 69 60 40
1.13887 0.85735 7.01549 38 22 15
1.19162 2.43665 8.07646 105 65 54
1.23294 0.800367 7.28153 69 48 36
0.275011 2.05864 6.31874 110 100 82
-0.549158 -0.943945 6.90397 53 54 28
-0.648864 -2.31843 8.68394 84 88 38
0.513843 2.06082 7.98972 100 66 52
1.75367 2.00329 8.38669 80 46 44
0.798329 1.57144 7.40752 34 9 4
1.5921 2.36063 8.37222 101 72 70
0.698962 -1.03891 8.37811 104 111 72
-0.827426 -1.21475 6.7744 52 52 32
-0.698263 -1.09742 6.81139 46 50 26
-0.552169 -0.946729 6.9104 54 55 32
-0.736815 -1.26665 6.86707 86 84 45
1.36287 2.43925 8.1459 77 34 24
-0.50197 -1.10505 6.98079 90 90 46
0.777289 1.76955 7.61149 87 46 35
2.40971 1.32626 6.23696 130 114 104
0.418697 -0.218968 7.40184 64 68 40
0.803819 0.776884 6.55018 108 86 56
0.319891 -0.407742 7.42871 85 88 60
0.427121 -0.217745 7.38607 64 68 40
1.43756 2.44823 8.28759 108 69 63
1.58418 2.38528 8.72261 94 68 66
0.507316 -0.832715 6.04434 91 90 40
0.743309 1.145 7.07567 69 35 26
-0.847095 -1.24523 6.7004 54 52 25
0.48842 -0.838586 6.07284 86 86 35
1.27168 1.48584 7.3108 108 84 78
1.20374 2.22249 7.85639 53 17 12
1.21558 2.16783 7.83711 88 36 24
2.07082 -2.10031 8.05716 88 96 45
3.13195 -1.20228 7.10954 56 61 32
2.99355 -1.22458 7.21772 72 74 34
2.32026 -0.481965 5.34177 120 124 83
0.836942 0.0643827 6.99258 90 92 57
1.30776 0.793162 7.02603 40 22 10
1.56985 2.01548 7.87493 121 92 90
1.073 2.50101 8.15025 92 45 26
0.253793 -0.491956 7.52021 107 110 64
0.485943 -0.317269 7.60629 111 116 66
0.703722 1.45794 7.3611 36 11 6
0.764822 1.45595 7.33557 26 6 4
0.15967 1.86136 8.32836 144 115 95
0.801221 1.8336 7.61689 110 82 78
1.85581 1.75461 8.08919 120 100 99
0.81438 2.05283 7.82682 120 98 93
0.852177 2.24708 7.96769 126 85 78
1.20485 2.22265 7.88566 57 18 14
0.636872 -0.685803 7.63009 108 114 80
0.497011 -0.307614 7.58963 86 92 44
0.721283 -0.190361 7.40583 158 156 110
0.826044 1.16317 6.92095 78 54 46
0.702349 1.44736 7.33675 24 6 4
0.784752 1.83893 7.65853 119 96 93
1.79249 1.9936 8.23269 117 91 90
1.23001 2.19122 7.86624 108 75 70
1.19714 2.48787 8.29869 103 57 47
3.16907 -1.29128 7.04413 157 160 114
2.33264 -0.467905 5.31144 138 142 99
0.643316 -0.684796 7.61137 106 112 76
0.39799 -0.398897 7.49942 110 116 72
1.80802 1.56676 7.72216 46 17 13
1.32941 1.00544 7.0656 40 14 8
1.30212 0.851245 7.09498 44 28 22
1.71869 2.19732 8.21701 82 42 42
0.581796 0.336916 6.89448 142 127 87
1.15152 0.346241 7.7336 102 104 104
1.20922 1.11708 6.90151 72 26 10
0.582348 1.44126 7.42831 36 12 6
0.77525 1.82868 7.64078 72 40 36
2.91137 0.922997 3.03015 105 75 47
3.16363 -1.30568 7.08589 150 151 107
1.5851 -1.44227 7.73162 134 141 98
3.07176 -1.19681 7.0594 146 142 104
3.04137 -1.19859 7.10225 157 156 110
0.095753 -1.26311 7.94601 108 111 66
2.33749 -0.349011 4.80427 130 133 86
2.53221 -0.886802 7.20329 81 86 60
0.875683 -0.468742 7.80135 150 152 104
0.924186 0.670922 6.2258 18 15 4
0.757941 0.687152 6.55807 67 60 46
0.750979 1.13788 6.95465 90 48 26
0.73249 1.19215 7.13462 36 10 4
0.769331 1.45705 7.31737 34 10 6
0.238247 1.7115 7.94356 110 86 64
1.04313 1.36908 5.55079 103 111 92
0.43466 1.76367 7.70182 119 94 74
0.818473 1.7797 7.51479 135 102 93
0.571936 2.33964 8.26491 96 50 34
1.46261 -2.59868 8.58608 100 100 44
3.23029 -1.30769 7.05025 61 69 35
1.27904 -1.76251 8.49633 131 136 88
1.5636 -1.47314 7.80856 120 130 88
1.28512 -1.64071 8.40429 122 128 79
1.05336 -0.524181 7.52837 146 148 104
0.849953 -0.489111 7.86473 159 164 112
0.0239995 0.710267 7.50409 127 96 62
0.917326 0.746156 6.69241 16 19 4
0.072443 0.94689 7.30777 103 56 26
1.09754 0.905889 6.01882 108 112 86
1.10731 1.00226 5.89859 100 109 87
0.693524 1.14836 7.09182 88 46 26
0.754636 1.1403 7.05259 79 36 22
0.999942 1.23633 5.95034 125 129 110
1.046 1.25097 5.71046 102 108 88
0.195717 1.72383 8.04455 88 59 38
1.01283 1.37482 5.60957 100 107 87
0.803459 1.79217 7.5627 126 92 86
0.95874 1.50991 5.53905 81 88 66
2.69541 -1.12139 7.33242 124 128 78
-0.291884 -0.946062 7.12901 107 108 61
1.09556 -0.504027 7.40172 138 140 97
0.847668 -0.495667 7.87185 158 164 112
0.00818435 0.61237 7.77816 180 164 147
0.039578 0.758098 7.30459 90 56 36
0.0678688 0.948577 7.32205 103 56 25
0.212553 1.09946 7.37357 146 127 100
0.66622 1.15401 7.15316 88 46 26
0.747002 1.15716 7.01957 114 88 82
1.04582 1.2522 5.71266 112 117 98
1.00673 1.37992 5.61404 96 104 82
0.989886 1.39701 5.62848 96 102 81
0.364214 1.78363 7.85733 127 102 82
0.193729 -0.519296 7.65163 104 109 66
0.38361 0.624584 6.63883 133 126 81
0.0883042 0.717363 7.57337 53 32 14
0.331251 0.841658 7.24152 104 96 96
0.414207 0.868946 7.06037 42 28 20
0.66086 1.16358 7.14604 60 20 7
0.789527 1.1419 7.00394 76 29 14
0.719155 1.1805 7.18209 35 8 3
0.599612 1.4088 7.37183 42 8 2
1.04299 1.37333 5.53962 95 100 80
0.954735 1.79797 5.58156 126 114 98
3.12338 -1.44937 7.59749 138 143 94
0.259845 -0.490897 7.50101 132 137 92
