ply
format ascii 1.0
element vertex 1295
property float x
property float y
property float z
property uchar red
property uchar green
property uchar blue
end_header
-0.599591 0.235191 3.98344 60 60 60
-0.401547 0.270392 4.13365 58 58 52
0.0859089 0.30589 3.82935 38 22 6
0.150692 0.311726 3.81387 50 36 4
-0.389622 0.271934 4.08609 70 68 65
-0.365063 0.276659 4.12473 152 144 137
-0.317395 0.281064 4.09557 160 154 134
-0.0239583 0.293844 3.81047 26 10 0
-0.00671245 0.296814 3.82303 87 76 54
-0.345838 0.280387 4.11684 146 144 130
-0.211235 0.29386 4.08445 40 38 27
-0.361337 0.281756 4.09412 60 56 47
-0.330623 0.285904 4.08651 126 126 112
-0.586694 0.242051 3.86487 86 81 75
-0.579307 0.247137 3.92252 106 91 86
-0.318906 0.287456 4.08 58 55 41
-0.217114 0.299497 4.08221 111 108 98
-0.211818 0.297181 4.03553 130 128 112
0.0475485 0.31581 3.87418 33 27 10
0.119609 0.318568 3.81294 47 32 2
0.568941 0.37831 3.93591 64 54 39
0.656101 0.370159 3.70797 58 48 46
-0.248163 0.297856 4.0595 52 40 24
-0.136917 0.334892 4.42211 64 61 40
-0.346348 0.288354 4.05661 68 63 54
0.448884 0.372208 3.98568 56 37 26
-0.232603 0.304876 4.05116 130 116 90
0.521688 0.382262 3.92088 56 46 33
-0.564576 0.258743 3.82006 125 97 92
-0.28401 0.298909 3.94785 148 142 119
-0.174228 0.316667 4.01075 79 72 40
-0.541592 0.276769 3.89813 154 148 132
-0.252017 0.317861 4.01299 94 92 85
-0.159503 0.361647 4.46176 16 14 10
-0.20831 0.331924 4.00595 35 33 24
-0.200823 0.332255 3.99919 120 118 104
-0.308355 0.313679 3.89312 26 17 11
-0.243831 0.33142 3.96 94 92 82
0.421016 0.399862 3.87901 54 45 30
-0.240842 0.336534 3.9449 20 17 9
0.063657 0.365144 3.8807 46 38 16
-0.17751 0.34441 3.92109 33 32 12
-0.139538 0.348692 3.92806 99 96 58
0.430224 0.406422 3.874 65 54 37
-0.143616 0.325126 3.62478 76 73 56
-0.0885188 0.357215 3.90505 135 130 108
0.440622 0.39719 3.64036 74 60 35
-0.280137 0.345411 3.9435 78 74 65
0.104241 0.38347 3.86318 69 54 18
-0.25928 0.351466 3.90073 34 33 22
-0.140715 0.363404 3.89242 152 144 116
0.360395 0.415454 3.83082 72 59 24
-0.195931 0.361757 3.89547 72 64 37
0.411605 0.422251 3.79776 78 64 52
-0.280936 0.362318 3.9332 92 88 76
-0.276037 0.359572 3.8906 92 90 79
-0.266361 0.362872 3.87866 80 77 66
0.619972 0.487849 4.08469 72 4 2
-0.286423 0.363013 3.81596 113 107 96
-0.207805 0.380678 3.79564 121 112 100
-0.108871 0.390812 3.80062 35 32 24
-0.187986 0.385225 3.78573 112 101 84
0.0716299 0.41548 3.76704 122 116 85
-0.133954 0.399303 3.81909 120 116 101
0.0071821 0.407521 3.74669 90 84 66
0.0435277 0.417601 3.79114 32 27 10
-0.198304 0.391487 3.79442 124 118 101
-0.114901 0.3994 3.78481 100 94 87
0.0762883 0.421955 3.75431 48 46 18
-0.101813 0.4005 3.72629 45 40 22
-0.0500704 0.421878 3.87405 66 54 40
-0.00961726 0.415741 3.72864 107 99 82
-0.0804661 0.415882 3.78761 42 39 27
0.0339338 0.420555 3.70767 25 22 8
0.0592998 0.43099 3.74661 105 98 82
-0.0480979 0.416008 3.70683 46 44 26
0.0556571 0.435707 3.74702 47 36 17
0.103136 0.409995 3.40592 130 52 35
-2.77269 -1.2993 5.79564 72 64 64
-2.91187 -1.32543 5.90367 94 92 72
-2.76904 -1.27801 5.81103 94 90 88
-2.95537 -1.27474 5.91266 116 110 92
-2.90713 -1.23768 5.80082 95 76 62
-0.429164 -0.301408 4.01958 98 92 90
0.593697 -0.161716 3.77578 86 65 63
0.577607 -0.153347 3.75752 92 61 58
-0.404966 -0.255515 3.89055 142 68 60
-0.424475 -0.25009 3.94685 166 126 124
-0.381889 -0.234316 3.77861 90 88 96
-0.34793 -0.224154 3.78002 177 171 141
0.624337 -0.108482 3.86753 145 138 127
-0.379131 -0.203582 3.79378 63 60 67
0.654877 -0.0967341 3.85545 84 72 46
-0.222154 -0.169752 3.59806 110 106 98
-0.0324231 -0.128156 3.5225 58 52 44
0.0456199 -0.117017 3.48559 98 15 3
-0.146749 -0.13591 3.52616 114 20 6
0.327607 -0.08029 3.54514 24 8 8
-0.380246 -0.148318 3.82314 172 155 116
-0.378391 -0.112097 3.82342 180 158 122
-0.349727 -0.072788 3.77425 150 156 138
0.369332 0.0109358 3.61817 88 80 62
-0.398586 -0.0417306 3.96637 100 96 93
-0.341894 -0.0262314 3.79307 113 109 105
-0.305133 -0.0122194 3.77705 68 66 66
-0.34319 -0.0134627 3.7845 133 130 113
-0.261742 -0.000337938 3.70198 98 80 59
-0.30218 -0.00253237 3.81888 152 151 134
-0.302943 0.00066998 3.74325 148 148 132
-0.451662 -0.00333273 4.68011 40 34 44
-0.319317 0.0117414 3.76677 37 34 28
-0.248654 0.0185315 3.68021 151 146 122
-0.299476 0.016148 3.76204 40 37 32
-0.279017 0.0193216 3.72305 42 36 32
-0.382986 0.0100275 3.92432 130 126 106
-0.470277 0.00772202 4.62889 47 40 38
-0.311987 0.0243573 3.77317 116 111 107
-0.507687 0.0110832 4.60049 117 52 43
-0.361902 0.0337252 4.06305 60 53 34
-0.307657 0.0447954 3.7797 94 90 80
-0.328769 0.0443664 3.85563 101 96 84
-0.302527 0.052233 3.88643 98 93 80
-0.566309 0.034113 4.51677 55 52 62
-0.354201 0.0497646 3.92811 50 44 33
-0.300772 0.0681784 3.96798 61 58 51
-0.326621 0.0665418 3.83791 84 72 58
-0.432275 0.0807442 4.58175 152 144 113
0.839965 0.212483 4.2138 98 54 50
-0.422033 0.0857907 4.57126 82 74 56
-0.304915 0.0835908 3.88858 14 8 4
-0.346467 0.0888313 4.02204 130 126 106
-0.244194 0.0946367 3.76146 76 70 52
-0.358312 0.0905968 3.99382 32 22 14
-0.418231 0.100799 4.53109 75 66 48
-0.254968 0.0995014 3.73429 26 24 18
-0.61858 0.0807906 4.35363 63 54 54
-0.394194 0.116013 4.53766 74 70 56
-0.460536 0.110251 4.48655 146 132 102
-0.43517 0.11252 4.48983 58 48 28
-0.288694 0.121483 3.86038 130 125 102
0.293131 0.184871 3.70021 36 33 16
-0.287217 0.130206 3.84797 117 110 80
0.306166 0.19265 3.708 104 94 64
-0.303553 0.132062 3.88908 138 130 102
-0.381315 0.146656 4.43203 142 137 114
-0.65563 0.113865 4.24757 76 75 80
0.83781 0.273465 4.05041 82 44 30
-0.338768 0.165272 4.47301 140 136 120
-0.412125 0.160654 4.42066 42 38 38
-0.282246 0.157112 3.89753 43 26 18
0.182732 0.200029 3.63898 42 32 14
-0.367298 0.176062 4.40961 57 52 46
0.821975 0.29239 3.99997 52 40 42
-0.326142 0.186511 4.43065 62 57 56
0.373978 0.245778 3.90952 56 35 6
-0.22709 0.178127 3.81243 114 110 92
0.338131 0.24291 3.84093 106 87 54
-0.639068 0.155618 4.12804 112 84 71
-0.209249 0.190171 3.81009 23 18 14
-0.655323 0.157709 4.12508 185 176 157
0.259324 0.242923 3.71439 36 12 4
-0.421959 0.20048 4.31074 105 100 86
-0.229058 0.200238 3.88336 24 12 2
-0.651905 0.166015 4.0628 58 56 57
-0.479683 0.194872 4.28146 141 137 122
0.281456 0.257218 3.76031 74 48 19
0.785021 0.318837 3.88481 94 50 39
-0.466379 0.203731 4.27938 54 52 54
-0.198564 0.20969 3.80976 26 20 14
0.12077 0.242356 3.6878 61 43 16
0.225086 0.258857 3.73934 49 30 10
-0.358478 0.224526 4.2579 95 94 88
0.0927473 0.246405 3.72379 56 42 22
-0.642156 0.182627 3.97143 186 172 150
-0.420218 0.223858 4.28372 83 80 70
-0.410118 0.220915 4.23333 148 142 129
-0.394429 0.226201 4.31325 62 59 56
-0.317229 0.234151 4.26513 65 56 44
0.00160951 0.240427 3.72304 30 21 14
-0.282408 0.239449 4.24096 170 157 126
-0.250491 0.24093 4.14676 138 132 114
0.101782 0.257545 3.70769 25 8 2
-0.482106 0.223623 4.20431 133 120 110
-0.211672 0.245301 4.03608 32 23 9
0.0132729 0.25204 3.72959 58 52 37
-0.210609 0.246847 3.95846 34 24 10
-0.592257 0.210984 4.00834 106 98 78
0.253489 0.295215 3.83894 86 58 18
-0.293725 0.2583 4.18598 68 64 54
0.681034 0.355793 4.01232 64 44 32
-0.384567 0.254231 4.1814 146 144 132
-0.246177 0.274678 4.17108 61 56 38
0.523659 0.350613 4.05671 66 50 38
-0.272294 0.27124 4.14658 155 152 131
-0.234759 0.275278 4.10159 61 56 40
-0.613543 0.220901 3.91252 80 78 74
-0.558487 0.232564 3.98938 107 100 78
-0.436954 0.255945 4.14016 110 103 82
-0.420201 0.262054 4.16479 146 142 124
-0.31752 0.273474 4.14484 131 124 96
-0.263664 0.277642 4.12734 106 102 88
-0.223963 0.271168 3.94791 106 106 84
-0.128053 0.283297 3.97666 85 78 51
0.136869 0.301691 3.80073 68 46 18
-0.203834 0.279672 3.99337 152 150 132
-0.168062 0.300328 4.21809 157 155 138
0.681434 0.360801 3.72387 147 125 106
-0.419653 0.265045 4.10566 90 86 81
-0.34235 0.281503 4.15316 130 128 112
-0.247527 0.287429 4.11007 110 106 96
-0.0211286 0.294142 3.80557 36 20 8
-0.483149 0.261255 4.03339 138 134 124
-0.302184 0.283866 4.07362 42 37 27
-0.531024 0.253364 3.95714 94 84 65
-0.315229 0.287693 4.09555 64 58 46
-0.246252 0.296372 4.06779 44 34 22
-0.0179242 0.307629 3.85778 84 72 47
-0.372883 0.286926 4.08388 132 127 114
-0.190863 0.303766 4.04577 88 85 63
-0.525646 0.2617 3.93403 126 120 100
-0.355041 0.291327 4.06669 148 145 129
-0.31694 0.296177 4.08933 116 112 92
0.642249 0.373003 3.65125 24 17 14
-0.461173 0.280679 4.04848 144 140 119
-0.395084 0.288041 4.03144 152 145 126
-0.304119 0.309757 4.01039 100 97 78
-0.254361 0.315621 4.00315 77 75 62
-0.246463 0.321996 4.00309 26 22 16
-0.294228 0.321289 4.00507 50 45 36
-0.227644 0.326737 4.00026 16 14 10
0.594007 0.391463 3.6253 85 16 15
0.459823 0.399343 3.89423 60 50 42
-0.18918 0.349698 4.14475 32 30 20
0.505383 0.401517 3.80892 107 98 80
-0.24461 0.332798 3.95726 98 96 88
-0.145977 0.343413 3.93616 154 148 121
-0.0385383 0.352112 3.86336 102 82 48
-0.139868 0.349799 3.93768 110 107 71
0.551105 0.399547 3.59294 25 14 20
0.36534 0.401296 3.82614 60 46 27
0.334236 0.404159 3.86286 87 66 30
0.422238 0.38959 3.56883 108 92 67
0.524883 0.403738 3.57016 12 8 12
-0.265931 0.34937 3.90622 76 74 62
-0.101681 0.366413 3.88375 138 130 109
0.0170335 0.375458 3.82737 18 13 7
0.357735 0.413541 3.83821 58 42 12
-0.394488 0.334249 3.82501 130 120 102
-0.0109038 0.378872 3.85606 36 30 22
-0.27538 0.359573 3.88759 94 92 82
-0.25869 0.362974 3.87646 40 38 28
-0.13219 0.3747 3.85378 112 108 82
-0.316999 0.365554 3.88887 94 80 64
0.0236754 0.396111 3.82234 34 34 20
0.0262872 0.397805 3.79506 80 78 65
-0.26786 0.38416 3.90673 110 105 94
0.0433563 0.409355 3.74956 127 121 92
-0.196234 0.398422 3.87416 56 49 40
-0.136813 0.398762 3.8073 116 112 94
-0.11717 0.396224 3.77578 105 101 92
-0.262079 0.371957 3.59457 79 76 66
-0.144634 0.40528 3.78921 71 64 42
-0.183118 0.407203 3.83822 136 122 102
-0.156145 0.379825 3.51022 60 51 40
-0.0518472 0.413686 3.73772 111 108 89
5.00872e-05 0.423639 3.79973 86 77 58
-0.172948 0.40362 3.76114 155 129 110
-0.00449263 0.419188 3.70991 32 24 12
0.00649551 0.428449 3.68235 128 94 80
-2.91276 -1.32428 5.8984 104 101 82
-2.82402 -1.25967 5.88419 146 146 132
-2.90296 -1.23567 5.77833 104 85 70
0.434379 -0.312949 4.13141 233 234 225
0.27638 -0.33388 4.20992 192 193 175
-0.430725 -0.291193 3.96484 106 100 104
0.589817 -0.15928 3.77488 88 58 58
-0.415792 -0.265901 3.91381 144 67 60
-0.39496 -0.252912 3.88213 198 182 152
-0.384431 -0.24507 3.82378 184 180 154
-0.381604 -0.2343 3.79661 130 128 132
0.494302 -0.134893 3.63903 20 18 25
-0.419221 -0.239038 3.89555 156 96 99
-0.365218 -0.222942 3.76086 40 36 48
0.445964 -0.123234 3.61312 75 6 6
-0.326129 -0.206092 3.71709 174 99 94
-0.393546 -0.214817 3.82896 84 80 82
-0.338309 -0.202047 3.70788 184 114 109
0.514385 -0.108605 3.68857 40 28 18
-0.345232 -0.185771 3.73444 137 54 46
-0.265612 -0.17158 3.61597 50 48 66
-0.166411 -0.156149 3.60382 172 106 90
0.480924 -0.10203 3.78595 70 22 10
-0.145976 -0.136547 3.54684 123 18 8
-0.27167 -0.140184 3.62786 143 145 127
-0.417832 -0.102872 4.02684 128 126 123
0.224135 0.0200265 3.53075 64 53 26
-0.342892 -0.026273 3.80125 92 88 83
-0.327683 -0.0201956 3.82182 60 56 54
-0.332183 -0.0153729 3.70333 78 76 68
-0.312629 -0.0128944 3.84799 99 98 88
-0.303363 -0.00723567 3.77737 65 66 58
-0.37603 -0.0116456 3.93775 118 112 106
-0.334164 0.002973 3.80781 70 69 56
-0.300587 0.0167321 3.75497 40 37 32
-0.469046 0.00483939 4.65441 47 40 42
-0.287978 0.0231303 3.73812 138 134 127
-0.317165 0.02324 3.74795 111 107 100
-0.509659 0.0143704 4.58592 124 46 39
-0.521625 0.0186606 4.5877 132 72 66
-0.372375 0.0325223 3.94874 58 50 32
-0.330933 0.0406834 3.84946 95 89 78
-0.288594 0.0491601 3.79896 68 64 61
-0.357736 0.0496257 3.88772 59 54 46
-0.292224 0.0558163 3.7728 56 52 46
-0.329251 0.0677172 3.81314 76 64 48
-0.61785 0.0585158 4.39354 188 184 175
-0.45774 0.0843556 4.53633 99 92 73
-0.425498 0.0862277 4.54995 84 78 62
-0.34817 0.0876601 3.978 120 116 96
-0.286563 0.107803 3.82402 23 19 12
-0.459557 0.111231 4.47071 146 134 104
-0.390963 0.119251 4.59535 82 78 65
-0.260139 0.114323 3.77437 70 66 60
0.838091 0.242801 4.17959 43 32 26
-0.642428 0.0905631 4.3632 134 79 76
-0.49815 0.111444 4.45302 145 140 111
0.836089 0.245859 4.11126 42 36 30
-0.440747 0.119601 4.48627 148 140 112
-0.345882 0.121378 4.16719 164 158 129
-0.290604 0.124 3.84054 116 111 86
-0.0577656 0.144326 3.64271 127 96 58
-0.416426 0.135855 4.45955 140 135 112
0.292486 0.193062 3.6855 104 92 55
-0.396383 0.14697 4.45746 62 60 48
-0.347238 0.151543 4.43896 79 74 60
0.832279 0.26892 4.10341 89 44 30
-0.2286 0.145558 3.74623 140 128 84
-0.419999 0.152362 4.43295 45 41 42
-0.659969 0.125666 4.17407 193 185 168
0.819236 0.297597 3.98243 50 40 40
-0.369498 0.175916 4.05528 154 152 134
-0.227335 0.178515 3.82236 97 92 73
-0.214751 0.184069 3.81312 19 15 10
-0.657372 0.152869 4.06539 192 186 170
-0.523392 0.177384 4.26011 68 64 60
-0.532024 0.184292 4.22378 130 128 120
-0.653322 0.166918 4.06814 70 68 73
-0.347055 0.222349 4.34135 88 84 76
-0.634728 0.176535 4.01902 94 84 75
-0.406339 0.222608 4.28669 148 140 127
-0.352345 0.233823 4.31778 108 106 96
-0.328973 0.233055 4.24205 156 152 133
0.113368 0.256346 3.75896 51 36 23
-0.569985 0.202295 4.08042 141 136 117
-0.303645 0.241291 4.28599 156 150 130
-0.505972 0.217816 4.18181 141 129 114
0.101271 0.259915 3.71619 38 19 12
0.745165 0.339257 3.84975 86 75 68
-0.636886 0.194516 3.95649 128 67 66
-0.391329 0.272825 4.69563 132 126 106
0.115548 0.273091 3.84113 39 17 5
-0.470054 0.24109 4.23856 69 63 55
-0.4246 0.24014 4.20055 104 98 82
-0.39918 0.244082 4.21334 66 57 50
-0.336497 0.253619 4.20819 150 146 128
-0.622378 0.212155 3.98896 180 162 153
-0.414668 0.243943 4.1803 150 143 126
-0.387643 0.255541 4.18087 138 136 124
-0.13445 0.263216 3.85475 64 52 20
-0.490768 0.245382 4.11414 136 131 118
-0.410581 0.260913 4.17589 85 80 72
-0.274666 0.274115 4.1469 144 140 119
0.69841 0.355283 3.76469 111 68 56
-0.437669 0.256523 4.13828 110 104 82
-0.399854 0.261476 4.14899 92 90 89
-0.263871 0.278893 4.13346 88 84 70
-0.19347 0.285764 4.09625 157 156 136
-0.127933 0.285039 3.98678 81 74 45
0.69674 0.359777 3.73222 88 36 29
-0.363693 0.274519 4.1457 137 132 120
-0.346815 0.277737 4.10374 130 128 112
-0.019763 0.297007 3.8287 34 18 6
-0.00115321 0.2991 3.81774 26 14 8
0.130851 0.313043 3.78855 105 92 48
0.5667 0.373062 3.9676 76 69 54
-0.531868 0.254565 3.95173 104 92 74
-0.51137 0.26051 4.0088 107 100 85
-0.362652 0.281965 4.09281 62 57 48
-0.320207 0.286312 4.06629 72 68 55
-0.179786 0.305209 4.07005 80 76 52
-0.37126 0.288285 4.06281 151 143 126
0.348098 0.367346 3.97617 28 4 1
0.618315 0.370995 3.63123 145 129 96
0.58474 0.392 3.79506 96 85 66
-0.390704 0.30147 4.00471 99 92 79
-0.303948 0.312492 4.01187 86 84 68
0.599961 0.383928 3.6121 94 19 16
-0.300178 0.315085 3.9381 59 54 42
-0.376803 0.315026 3.99211 100 92 80
-0.315962 0.322425 4.0076 142 136 112
-0.0764683 0.339374 3.89163 88 86 62
-0.265687 0.329851 3.96485 84 81 70
0.521475 0.40571 3.81035 98 88 76
-0.189427 0.338954 3.91245 72 67 57
-0.00853617 0.35865 3.90887 68 58 34
0.0225503 0.359076 3.88274 72 69 44
-0.0817764 0.357209 3.89103 92 90 72
0.382871 0.413079 3.85709 70 57 32
0.358797 0.415053 3.85794 57 39 10
-0.0975443 0.365732 3.87371 72 64 54
0.12044 0.392203 3.84554 86 76 41
0.399128 0.417776 3.75716 104 90 73
-0.295169 0.35434 3.87187 144 140 118
0.445634 0.413317 3.52201 94 34 26
-0.0830667 0.392408 3.80241 28 20 13
-0.251164 0.375625 3.78481 49 47 35
-0.0541797 0.39938 3.81883 130 124 104
0.0729122 0.413369 3.79524 132 126 91
-0.0516759 0.407228 3.82607 68 56 40
-0.193415 0.400845 3.87893 86 82 69
-0.16938 0.407099 3.79772 148 127 106
-0.0764044 0.42134 3.83366 74 67 56
-0.0830114 0.394398 3.56808 108 106 88
-0.0176711 0.421913 3.78927 88 86 69
0.0706066 0.430137 3.68882 59 48 29
-2.75739 -1.23325 5.76631 54 38 34
0.326425 -0.317234 4.1695 194 196 180
0.526565 -0.13813 3.69238 18 12 20
-0.372642 -0.223614 3.74654 32 31 64
-0.354083 -0.22073 3.73899 174 167 138
0.414097 -0.120908 3.59322 113 57 51
-0.394381 -0.213573 3.78803 66 64 74
-0.338394 -0.203837 3.72682 188 127 120
-0.292842 -0.19388 3.63447 178 161 132
0.614594 -0.1103 3.8461 133 129 118
-0.381334 -0.205849 3.78095 62 63 82
-0.344685 -0.186991 3.72867 142 59 48
-0.259747 -0.173297 3.63691 32 31 58
-0.348718 -0.145549 3.74275 178 148 110
0.123347 -0.0842215 3.49954 18 14 20
-0.378466 -0.109734 3.80216 178 154 118
-0.385225 -0.0876698 3.88116 188 180 144
-0.384903 -0.0369125 3.90815 121 118 104
-0.284656 0.0030056 3.73662 159 156 136
0.597937 0.104306 4.03375 78 32 22
-0.317979 0.00863897 3.79626 59 56 51
-0.378832 0.00824884 4.02938 116 110 84
-0.365407 0.0205529 3.93699 101 98 78
-0.542453 0.0193248 4.55003 186 180 166
-0.56037 0.030303 4.52107 58 55 70
-0.598133 0.0485539 4.4522 162 98 100
0.0181132 0.106804 3.59729 142 110 74
-0.458279 0.082999 4.47627 90 82 67
-0.358247 0.0866627 4.02575 34 24 17
-0.473808 0.0909577 4.49351 150 140 108
-0.481138 0.10647 4.4685 96 94 80
-0.396005 0.11557 4.50532 74 70 56
-0.499208 0.108058 4.47413 148 140 105
-0.445356 0.116734 4.48726 148 138 104
-0.34844 0.117864 4.17855 163 154 119
-0.215966 0.138756 3.74829 98 74 13
0.299189 0.193883 3.71281 103 92 56
0.325757 0.198787 3.76411 42 28 13
-0.656379 0.111177 4.23047 97 94 96
-0.379323 0.149489 4.43782 142 136 113
-0.438633 0.150775 4.43227 82 75 70
-0.417093 0.154851 4.46306 44 40 40
-0.273795 0.157326 3.99344 38 20 10
-0.26537 0.15935 3.89751 110 106 79
-0.319329 0.169636 4.02444 139 136 118
0.330739 0.235042 3.76805 90 70 41
-0.642968 0.148214 4.09306 120 78 70
-0.508821 0.17049 4.25858 100 93 76
-0.658103 0.150991 4.09262 196 178 163
-0.520197 0.172237 4.28381 65 60 56
-0.394725 0.197379 4.36718 136 133 110
-0.653448 0.165425 4.052 105 103 102
-0.196896 0.20729 3.83192 60 52 48
-0.432581 0.207476 4.23106 134 129 114
-0.313195 0.227505 4.29 116 108 95
-0.222887 0.249981 4.21812 155 152 127
0.670559 0.334248 3.96711 98 86 67
0.0375719 0.255081 3.72766 15 4 0
0.112536 0.275253 3.89342 40 19 7
-0.629584 0.21002 3.99519 202 189 180
-0.237918 0.268221 4.08693 124 118 98
-0.133215 0.26353 3.86444 74 60 28
-0.450624 0.248221 4.11709 148 142 118
-0.310444 0.268025 4.1818 162 154 124
-0.274948 0.271434 4.15433 133 130 106
-0.402654 0.260358 4.12897 116 114 114
-0.335775 0.270397 4.08962 104 101 88
0.689507 0.361413 3.75693 126 102 80
-0.490076 0.257033 4.02182 134 128 116
-0.290591 0.282799 4.04825 46 39 32
-0.0171795 0.297587 3.8437 39 22 6
-0.392497 0.281734 4.07251 113 111 104
-0.368807 0.289426 4.06934 156 150 128
-0.342315 0.289998 4.03706 69 62 54
0.345535 0.367576 3.97774 52 26 12
0.41669 0.379509 3.92011 52 38 18
-0.297927 0.31236 4.05837 106 102 82
0.588208 0.379303 3.58577 106 24 26
-0.463312 0.289779 3.89956 131 124 104
0.570599 0.379344 3.56169 113 50 45
-0.112825 0.337812 3.94901 106 107 86
0.566964 0.387056 3.60527 134 122 86
0.526381 0.404739 3.82117 102 92 81
-0.318897 0.330226 3.95623 60 49 34
-0.183404 0.348835 3.92568 118 115 96
0.0570549 0.367621 3.85029 54 46 28
0.521138 0.400723 3.56441 55 48 50
-0.284824 0.368518 4.02775 138 132 110
0.0531225 0.393636 3.83896 29 26 16
-0.212817 0.383151 3.77336 78 70 58
0.0958561 0.419224 3.78354 112 104 68
-0.115902 0.408873 3.7881 62 52 43
-0.0803854 0.41945 3.85117 71 65 50
0.0601894 0.426611 3.71116 38 30 14
-0.069966 0.431592 3.81516 131 126 111
0.0502118 0.442019 3.76129 118 100 76
0.105559 0.415132 3.4252 129 54 37
0.0894622 0.449914 3.75707 90 80 60
-2.91598 -1.36691 6.07658 74 64 56
-2.75454 -1.2292 5.75901 54 38 34
-0.433299 -0.295117 4.0056 141 136 140
0.58957 -0.157825 3.77846 83 51 53
-0.41828 -0.247966 3.90999 167 90 98
0.5268 -0.1368 3.70468 13 8 20
0.47656 -0.133555 3.64796 147 134 108
-0.350861 -0.219594 3.74944 182 176 146
0.602227 -0.113061 3.80941 127 122 113
0.531395 -0.110153 3.7444 41 30 25
-0.326776 -0.176739 3.67745 152 40 38
-2.9028 -0.53521 5.90357 114 103 88
-0.349426 -0.146665 3.74076 176 148 108
-0.378944 -0.112714 3.82872 179 157 121
0.602786 -0.00274079 3.88939 106 96 84
0.494701 0.000330112 3.7702 88 74 48
0.585423 0.00917529 3.8829 130 124 116
-0.331461 -0.0141916 3.97712 151 150 134
-0.289212 0.00528562 3.71339 158 155 134
-0.314542 0.0125952 3.82604 46 43 39
-0.297009 0.0242825 3.72698 76 71 64
-0.361619 0.0505331 3.97852 34 25 19
-0.320976 0.0612299 3.85518 26 21 16
-0.598024 0.0504565 4.4459 130 63 62
-0.454512 0.0834815 4.54191 84 73 58
0.361934 0.171464 3.72773 39 28 17
-0.484156 0.104656 4.44507 104 102 88
-0.453126 0.114198 4.44646 151 138 104
-0.636081 0.0928478 4.29086 128 66 55
-0.464793 0.118435 4.48722 144 136 110
-0.283146 0.124733 3.82397 134 122 74
-0.518836 0.121247 4.38261 117 109 82
-0.454903 0.134637 4.44684 99 90 75
-0.431446 0.133993 4.42695 152 146 114
-0.460876 0.157132 4.41152 142 136 116
-0.205866 0.158574 3.76739 46 26 12
0.163393 0.197623 3.66267 17 10 2
-0.270992 0.159951 3.83467 120 116 86
-0.2513 0.168357 3.85515 126 117 84
-0.656962 0.142744 4.1805 134 78 72
-0.502854 0.173176 4.30076 142 136 112
-0.322494 0.196826 4.40712 94 92 79
-0.0998504 0.196695 3.69071 84 87 70
0.771552 0.313751 3.90288 117 74 58
0.225751 0.254786 3.75709 38 22 4
0.746331 0.328128 3.93491 87 72 58
-0.637004 0.195828 3.9948 126 70 67
0.0388681 0.255851 3.72714 23 10 3
-0.460535 0.230782 4.14954 140 134 117
-0.374836 0.243199 4.21281 78 70 66
-0.424712 0.25147 4.13379 150 144 118
-0.274077 0.26956 4.14839 138 134 112
-0.310613 0.277735 4.14939 146 141 110
-0.229791 0.280946 4.11274 38 34 29
0.673336 0.35788 3.71471 128 107 86
-0.302591 0.285267 4.07581 74 70 58
0.559281 0.3715 3.93412 50 42 34
0.641949 0.386725 3.93912 93 80 64
0.669366 0.374705 3.72375 45 40 48
0.344196 0.368241 3.96679 34 8 4
-0.292968 0.321422 4.00513 59 54 42
-0.227303 0.344377 3.90976 75 71 56
-0.0969273 0.364513 3.86719 103 95 82
0.0847935 0.399037 3.81451 84 77 49
0.0391702 0.4418 3.76134 130 96 76
-0.00325678 0.438222 3.75626 126 88 66
-0.421012 -0.280295 3.92842 174 170 148
-0.418043 -0.252774 3.88603 162 75 80
0.526095 -0.137431 3.70857 12 8 22
-0.373728 -0.22455 3.75539 30 30 64
-0.392483 -0.216588 3.77834 62 62 80
-0.380519 -0.206406 3.7785 62 61 78
-0.34474 -0.186241 3.67206 154 46 39
-0.322423 -0.179892 3.72616 156 36 34
-0.163824 -0.156961 3.59465 174 114 100
-0.0792693 -0.154433 3.87738 180 128 106
-0.18941 -0.134408 3.61184 133 32 25
0.00862445 -0.105316 3.83151 23 23 30
-0.012953 -0.0957165 3.52643 118 20 12
-0.376391 -0.110006 3.82081 176 148 114
-0.417799 -0.0985973 4.00115 128 125 124
-0.309513 -0.0744188 3.70328 134 149 140
-0.391303 -0.0657244 3.89533 84 78 74
0.582897 0.10584 3.93396 116 79 73
-0.234443 0.0372584 3.71465 84 82 68
-0.513634 0.0180447 4.58293 136 47 45
-0.247094 0.04828 3.67611 30 26 29
-0.339725 0.0887009 4.02612 88 84 68
-0.306631 0.089634 3.80137 135 132 120
-0.357565 0.110119 4.12913 166 155 117
0.809242 0.237494 4.07224 36 28 29
-0.484938 0.107202 4.188 122 118 103
-0.450911 0.135063 4.45417 50 42 26
-0.428577 0.134425 4.43626 151 145 114
-0.231974 0.14205 3.80433 138 125 90
-0.290389 0.144064 3.83147 36 22 16
-0.429139 0.158282 4.43813 42 42 45
-0.204519 0.159209 3.79816 78 56 34
-0.660404 0.133894 4.10322 158 118 111
-0.205103 0.176233 3.78381 124 116 84
-0.483682 0.183714 4.2412 114 113 98
-0.650607 0.171276 4.11253 74 72 78
-0.567051 0.189854 4.16179 94 88 78
0.1832 0.252111 3.7315 81 60 29
0.0765245 0.243057 3.68615 80 62 38
0.587447 0.330996 3.9958 76 60 46
-0.45407 0.235353 4.18904 144 138 119
0.710781 0.357855 3.77103 110 46 44
0.660135 0.368191 3.69392 61 56 60
0.637349 0.376978 3.69232 138 123 88
-0.43367 0.293629 3.99165 82 76 72
0.627264 0.390973 3.70259 120 50 46
0.575084 0.390545 3.62516 140 130 92
-0.0185512 0.356557 3.86462 83 74 51
0.117462 0.410119 3.81757 81 70 33
-0.0174701 0.395939 3.76694 16 11 12
-0.390917 -0.25063 3.86832 190 181 150
-0.318727 -0.195415 3.67444 160 32 26
-0.322826 -0.182168 3.70072 158 36 33
-0.176221 -0.165135 3.69739 178 168 133
-0.0724714 -0.157183 3.91937 169 118 99
-0.252932 -0.15475 3.62115 32 36 72
-0.350193 -0.157704 3.79645 181 146 94
-0.15449 -0.126611 3.58269 138 32 26
-2.80165 -0.461252 6.12126 66 38 52
0.487407 0.00312621 3.75565 96 80 52
0.582301 0.00908744 3.86383 156 152 150
-0.371726 -0.0626659 4.03748 84 81 79
-0.262702 -0.0199512 3.70304 90 82 63
-0.0963805 0.00196722 3.56964 134 120 115
0.871729 0.15219 4.73085 39 28 27
-0.310368 0.101241 3.82798 18 11 12
0.369033 0.174106 3.78698 72 60 42
-0.656423 0.106678 4.21847 136 135 134
0.241108 0.186863 3.6746 21 12 4
-0.207687 0.202798 4.01339 48 38 24
-0.175976 0.236102 3.897 38 30 21
0.746952 0.337559 3.82295 56 50 54
-0.427336 0.241188 4.12071 122 114 93
-0.279809 0.270714 4.21894 128 125 106
-0.286746 0.283317 4.10161 41 34 28
-0.0547927 0.405009 3.76163 54 42 28
0.317248 -0.317465 4.1387 194 196 180
0.413063 -0.302455 4.10428 218 220 211
0.315787 -0.331825 4.36114 211 213 199
0.57021 -0.15363 3.7392 109 81 70
0.457939 -0.136422 3.61334 184 180 160
-0.357109 -0.21398 3.76221 186 178 140
0.366371 -0.111387 3.64751 8 6 21
0.395498 -0.103392 3.57003 116 54 31
-0.00475567 -0.104085 3.54903 132 34 28
-0.223878 -0.0816147 3.62641 168 136 90
-0.00373658 -0.0657573 3.7978 145 108 66
-0.312214 -0.0752957 3.70647 139 152 140
-0.38687 -0.0712002 4.02793 96 92 87
-0.221974 -0.0450868 3.61112 166 132 96
-0.266227 -0.0227665 3.71346 144 138 116
-0.347695 -0.0159317 3.81079 166 163 146
-0.368891 0.000952001 3.9874 42 26 22
-0.351469 0.0122535 3.97226 28 18 14
-0.250258 0.0436142 3.68111 63 60 62
-0.564551 0.0376946 4.49172 56 52 60
-0.309617 0.0651848 3.80355 79 76 68
-0.278391 0.126553 3.80301 127 109 55
-0.215882 0.154611 3.78769 112 96 52
-0.385078 0.159979 4.02027 58 50 46
-0.0385575 0.204836 3.69871 119 80 40
0.0870529 0.248471 3.70674 56 38 24
-0.292228 0.276358 4.0686 100 94 84
-0.218073 0.306022 4.03513 94 94 79
-0.435118 0.292008 3.95838 80 74 70
-0.11105 0.336073 3.94316 82 84 64
-0.00333137 0.375779 3.88485 92 88 70
-0.191789 0.358159 3.85089 117 112 77
-0.427499 -0.302858 4.0326 100 92 91
-0.310029 -0.188157 3.67313 120 24 14
-0.137595 -0.144809 3.57966 172 72 60
-0.0706243 -0.0216309 3.53916 116 75 42
-0.352214 -0.0245133 3.8245 68 66 55
-0.342862 -0.0197265 3.80775 75 72 60
-0.315129 -0.0103977 3.81065 61 58 48
0.005975 0.0283806 3.54737 104 75 42
-0.521818 0.0168601 4.61008 124 54 46
-0.345923 0.0316421 3.99242 72 64 46
-0.403974 0.0820581 4.60483 128 115 79
-0.235911 0.0836947 3.72865 55 46 22
-0.420896 0.0854551 4.57598 42 30 16
-0.462661 0.086177 4.5171 51 41 28
-0.41516 0.101561 4.55549 64 58 40
-0.350742 0.105537 3.99745 62 51 28
-0.382718 0.124332 4.5387 136 129 115
-0.292109 0.118129 3.82821 136 130 107
-0.40744 0.137802 4.49864 143 138 118
-0.383451 0.1554 4.47376 86 82 63
-0.535075 0.138681 4.35244 150 138 114
-0.270562 0.158573 3.84953 126 124 93
-0.240963 0.178274 3.84189 36 22 5
-0.198479 0.205747 3.80989 22 16 9
-0.318181 0.233797 4.29202 140 134 120
-0.485252 0.221469 4.18618 136 122 111
-0.341479 0.260925 4.19892 104 98 83
-0.314975 0.265751 4.17164 162 156 124
-0.342596 0.265463 4.17894 152 146 128
-0.317784 0.273857 4.13447 118 111 81
-0.168008 0.296929 4.07429 98 100 84
-0.2257 0.302772 4.13389 92 78 64
-0.360672 0.297778 4.04161 156 149 126
-0.461089 0.29459 3.90733 136 128 109
-0.3804 0.31245 3.97126 102 92 80
-0.201823 0.3358 3.95892 18 16 6
-0.361056 0.335716 3.90434 121 112 86
-0.276847 0.351655 3.89233 28 26 18
-0.0601153 0.392226 3.8189 70 66 52
0.0802681 0.405265 3.77651 41 39 14
0.0759744 0.408641 3.75762 66 61 32
-0.415061 -0.268415 3.92074 156 90 78
-0.364399 -0.222923 3.7766 34 31 48
0.448506 -0.126242 3.61485 84 26 24
-0.391963 -0.214869 3.83033 72 69 71
0.360432 -0.114779 3.55546 10 5 4
0.32599 -0.113163 3.55247 42 39 42
-2.7959 -0.446604 6.10635 37 28 40
-0.333092 -0.0122299 3.78647 83 80 65
-0.39923 -0.00813141 4.20892 170 146 111
-0.28962 0.0104471 3.78838 84 80 70
-0.323062 0.0323317 3.92304 34 30 25
-0.319459 0.0460975 3.8909 108 102 88
-0.320025 0.0631578 3.82375 12 8 2
0.797541 0.214679 4.14122 88 44 28
-0.286689 0.090453 3.80252 24 22 18
-0.409665 0.136958 4.49066 138 132 112
-0.212553 0.151545 3.73472 73 50 20
-0.10164 0.196767 3.70009 88 88 70
0.229585 0.246021 3.7223 42 26 6
-0.199011 0.226236 3.8543 56 55 42
-0.313639 0.247028 4.2148 76 71 54
-0.493157 0.22998 4.16095 136 129 117
-0.488388 0.236585 4.13936 74 69 62
-0.315297 0.265197 4.15764 156 152 121
-0.368972 0.271304 4.09467 138 133 122
-0.0135654 0.291451 3.77874 65 57 30
-0.165137 0.299357 4.10061 106 108 92
-0.461653 0.292338 3.89351 138 130 108
-0.263293 0.329649 3.99079 80 76 69
-0.228751 0.331514 3.93108 16 14 8
-0.39633 0.319947 3.87902 150 136 112
-0.278723 0.347874 3.95403 85 84 72
-0.0162264 0.373243 3.85952 106 100 74
-0.271735 0.354704 3.9648 66 62 54
0.0709626 0.393496 3.82906 130 120 86
-0.0430131 0.394568 3.83194 96 96 77
0.07769 0.4227 3.75677 55 50 18
-0.0615963 0.405084 3.62874 58 54 40
0.00271993 0.420754 3.72166 78 72 60
-0.348997 -0.00658632 4.08627 114 110 102
-0.45302 0.000385651 4.69387 44 40 54
-0.272647 0.0343547 3.71542 95 92 86
-0.566154 0.0335452 4.49721 68 64 70
-0.599072 0.050934 4.46603 124 57 53
-0.0437403 0.0971871 3.62757 120 76 44
-0.627615 0.0701491 4.38486 72 67 75
-0.279913 0.135891 3.8459 128 121 87
-0.382364 0.149063 4.4462 134 127 105
-0.337592 0.166192 4.48122 146 141 128
-0.513686 0.145279 4.33361 82 78 64
-0.370155 0.175746 4.41197 84 80 63
-0.409865 0.172357 4.39552 80 74 67
-0.66118 0.138495 4.14149 176 134 133
-0.241873 0.180163 3.80669 34 22 8
-0.419147 0.197733 4.32983 91 88 74
-0.439256 0.228407 4.2427 70 63 58
-0.487512 0.238034 4.22368 114 106 96
-0.234037 0.276454 4.09698 44 40 29
-0.281649 0.290352 4.09259 45 38 24
-0.261859 0.295104 4.11481 66 62 49
-0.319972 0.330658 3.94631 75 64 50
-0.017695 0.405234 3.83504 70 64 56
0.567204 0.516526 4.23218 64 24 18
0.0077835 0.425444 3.77029 74 66 52
0.585738 -0.158775 3.76768 108 82 80
-0.384619 -0.246052 3.85226 187 182 150
-0.425969 -0.250949 3.91381 180 136 133
0.232851 0.0212418 3.55793 58 48 21
-0.317446 -0.00969648 3.76156 74 70 63
-0.37317 0.0246259 4.14592 88 77 50
-0.507925 0.0162692 4.62399 130 48 44
-0.62779 0.0695931 4.35657 89 84 91
-0.644479 0.087584 4.29541 148 96 96
-0.454435 0.131327 4.45729 82 74 58
-0.431912 0.135093 4.4734 151 145 115
0.183471 0.245941 3.71007 84 67 34
-0.241572 0.217736 4.02291 74 58 36
-0.300693 0.257431 4.14458 86 82 71
-0.426624 0.247783 4.12636 148 142 114
-0.417609 0.260428 4.12658 100 96 86
-0.239671 0.293869 4.08195 39 32 25
0.550472 0.469414 3.96458 84 48 42
0.619564 0.526477 4.34074 112 72 62
-0.0738608 0.395053 3.83692 73 69 58
-0.000133922 0.403034 3.80955 16 13 13
0.434274 -0.122007 3.58977 84 8 10
-0.328675 -0.204031 3.68881 146 49 44
-0.312205 -0.196095 3.68609 162 36 30
-0.06717 -0.100753 3.52821 23 22 29
-2.81217 -0.453337 6.13817 50 32 47
-0.306928 -0.0766913 3.73502 140 148 132
-0.328349 -0.0119046 3.88452 124 122 102
-0.30335 0.00136099 3.74518 128 126 114
-0.278672 0.0201196 3.74027 50 48 41
-0.512324 0.0166849 4.60344 132 46 42
-0.366658 0.0346498 4.07002 55 50 32
-0.614827 0.0568962 4.43002 189 180 168
-0.302863 0.0943859 3.82399 108 104 92
-0.214265 0.142847 3.75267 98 68 7
-0.372667 0.156267 4.46904 152 143 116
-0.509397 0.148994 4.38785 88 83 70
-0.204992 0.179293 3.79091 124 115 84
-0.520263 0.173747 4.27753 65 59 56
-0.285796 0.205066 3.97707 164 157 129
-0.428978 0.209977 4.26734 138 132 116
-0.505025 0.235546 4.14033 103 90 80
0.745306 0.379392 3.87547 70 36 40
-0.301892 0.353535 3.85202 122 116 94
0.521507 0.446501 3.79792 58 18 18
0.00209673 0.388198 3.78663 42 39 34
-0.172959 0.382078 3.80776 94 88 65
-0.00237955 0.402975 3.80134 16 13 14
0.00546609 0.430253 3.79848 70 63 47
-0.430499 -0.294595 4.01311 116 110 114
0.509789 -0.13739 3.74818 152 138 112
0.441311 -0.120865 3.61639 92 13 14
0.632556 -0.114679 3.88547 142 142 138
-0.257076 0.045932 3.72869 28 24 26
-0.306009 0.0730338 3.78827 142 138 118
-0.2415 0.0805503 3.7056 60 52 36
-0.245595 0.100015 3.79886 36 34 28
-0.224527 0.29089 4.12894 61 55 50
-0.339458 0.292818 4.08937 65 59 52
-0.0707074 0.364342 3.84105 60 51 42
0.0113653 0.381724 3.91209 20 16 10
0.0345928 0.38502 3.84303 104 100 75
-0.379496 -0.226456 3.82753 34 36 66
0.420656 -0.0601806 3.63859 90 78 56
-0.517477 0.0198702 4.57117 130 48 40
-0.358476 0.0483168 4.0398 63 54 44
-0.461288 0.0767117 4.43593 110 100 82
-0.358904 0.111673 4.16492 166 154 118
-0.208522 0.158209 3.79478 36 22 12
-0.544998 0.156733 4.27183 82 70 62
-0.649859 0.166305 4.05728 87 84 87
0.0163455 0.300551 3.83881 64 50 34
0.701501 0.507825 4.31448 124 90 78
0.401598 -0.117886 3.52021 82 7 5
0.494304 -0.116648 3.65174 31 29 34
0.698281 0.181105 3.89621 136 117 108
0.193058 0.178239 3.55911 43 32 22
0.150143 0.186979 3.60873 73 58 40
-0.262076 0.226018 4.25 172 166 125
0.495712 0.394201 3.53846 134 120 83
0.606834 0.437682 3.88005 99 58 54
-0.0425579 0.379144 3.77855 130 124 92
0.45884 0.460012 3.81541 124 89 76
-0.309662 -0.00271616 3.76294 154 151 137
-0.321187 0.254396 4.204 152 148 128
-0.0167824 0.0866676 3.59105 140 90 64
-0.467514 0.0944519 4.50047 150 143 120
-0.273467 0.103864 3.8113 66 64 59
-0.372983 0.152335 4.43093 133 124 96
-0.487189 0.175173 4.3242 64 60 52
0.00460552 0.0291294 3.55214 124 92 62
-0.310989 0.06939 3.80613 124 123 112
-0.259965 0.00684753 3.70685 130 116 89
-0.235886 0.140695 3.74799 138 126 88
0.403064 0.476244 3.87283 104 62 50
0.0428465 0.304109 3.83119 74 64 44
-0.0476054 -0.128386 3.49303 40 36 46
-2.6454 -1.20583 5.48488 92 88 84
-2.66104 -1.17123 5.46757 140 138 124
0.598589 -0.159642 3.79587 74 45 41
0.498108 -0.13531 3.65387 30 29 30
0.454163 -0.125409 3.63092 63 8 2
0.559305 -0.119207 3.7495 86 58 38
0.0236583 -0.0859112 3.48417 156 123 94
0.484542 -0.00297498 3.69497 78 68 56
-0.342044 -0.0394957 3.52905 169 165 148
-0.368894 -0.0429707 4.09848 113 112 104
-0.0480798 0.0173562 3.56815 133 112 77
0.580842 0.092768 3.98103 91 66 59
0.534207 0.091002 3.78455 56 25 22
-0.379886 0.0299273 4.03681 102 91 60
-0.292535 0.0499006 3.76057 109 106 99
-0.270368 0.068229 3.73533 30 26 18
-0.305583 0.0827695 3.92568 76 70 60
0.0434885 0.12161 3.62048 148 102 65
-0.456209 0.0940229 4.49614 52 42 18
-0.286967 0.131856 3.84394 92 85 61
-0.425725 0.145818 4.44522 124 120 109
-0.655592 0.113358 4.16614 80 79 81
-0.401155 0.151979 4.46044 57 56 46
-0.275537 0.169667 3.90803 36 32 15
0.318066 0.25894 3.8225 102 80 38
0.787362 0.316973 3.95012 106 64 52
-0.53626 0.188301 4.18155 80 76 64
-0.239112 0.217136 4.06878 37 27 7
0.75386 0.343345 3.83077 44 37 34
-0.251619 0.254947 4.20879 74 69 60
0.250036 0.295239 3.82771 70 41 10
-0.169799 0.262878 3.9572 117 110 78
-0.492062 0.243853 4.09736 136 130 117
-0.437227 0.254351 4.14665 107 100 81
0.709354 0.360537 3.80264 106 60 47
0.161731 0.300317 3.79857 78 58 14
-0.223949 0.270402 3.89197 102 100 78
-0.132379 0.283161 3.93869 70 64 37
-0.219857 0.265636 3.80511 140 141 118
-0.00541859 0.294837 3.79425 24 10 0
-0.199956 0.297268 4.08757 64 63 44
0.672568 0.370755 3.70499 24 15 16
0.359886 0.373521 3.89046 44 27 4
-0.479986 0.286222 3.9058 132 126 102
-0.263818 0.329451 3.98338 98 96 87
0.559246 0.395213 3.59755 138 126 98
-0.501651 0.305317 3.89506 100 88 78
-0.262006 0.329673 3.88678 106 102 94
-0.373955 0.32602 3.91744 144 132 116
-0.254573 0.342061 3.94665 30 28 13
-0.395598 0.325439 3.92833 142 134 108
-0.0224227 0.376422 3.89626 77 62 30
-0.456202 0.324395 3.79691 132 127 119
-0.38989 0.350839 3.79062 126 122 111
-0.182302 0.389207 3.86908 88 75 51
0.10416 0.41513 3.78334 134 122 88
-0.167979 0.388262 3.77619 114 104 82
-0.219095 0.390775 3.83868 122 120 100
-0.174464 0.395434 3.77329 62 53 38
-0.159375 0.408533 3.86251 64 58 40
0.058253 0.426751 3.71482 33 26 8
0.00831319 0.397281 3.31988 84 78 70
-2.70501 -0.922994 5.6123 136 126 112
0.516869 -0.135221 3.64537 16 8 10
0.508127 -0.136914 3.68934 84 84 81
-0.137065 -0.145984 3.52458 128 55 40
-0.349586 -0.0287349 4.04058 109 106 95
-0.321769 0.00526652 3.92207 63 62 50
-0.357038 0.0258831 4.02982 102 97 77
-0.27181 0.0342087 3.70503 86 84 74
-0.0688257 0.065195 3.59483 88 71 58
-0.612067 0.057203 4.4025 182 174 152
-0.46197 0.0860331 4.50171 78 72 52
-0.306638 0.0995689 3.78747 22 18 12
0.281586 0.19573 3.7086 17 6 1
-0.531583 0.171871 4.22099 57 55 46
0.326378 0.254986 3.8109 38 20 6
0.790173 0.315785 3.89884 92 48 40
0.782985 0.322579 3.93715 106 66 53
-0.572607 0.189549 4.11524 100 92 78
-0.243638 0.235953 4.18996 170 167 141
-0.556992 0.201457 4.14411 84 79 72
-0.355333 0.229313 4.2468 122 120 106
-0.310548 0.237612 4.24511 142 137 121
-0.502393 0.216528 4.18004 146 134 113
-0.278831 0.24933 4.20651 97 83 63
0.742948 0.346288 3.83039 124 114 98
-0.197536 0.256221 4.03294 48 41 26
-0.239628 0.263674 4.14258 144 138 122
-0.530259 0.231568 4.04368 112 104 84
-0.359769 0.2641 4.16862 140 138 126
-0.600789 0.226882 3.86542 67 68 67
-0.361726 0.28269 4.1182 70 66 56
0.124694 0.319175 3.83197 58 43 18
-0.440984 0.270418 4.01093 86 82 74
-0.00558602 0.308594 3.84865 56 44 18
-0.562585 0.254587 3.75316 112 85 81
-0.556988 0.262259 3.79391 178 166 153
-0.291222 0.318039 4.05069 126 123 106
-0.512318 0.308361 4.02887 104 95 89
-0.396656 0.335095 4.16166 128 121 102
-0.293254 0.354846 3.87976 144 136 119
-0.243611 0.388102 3.89992 52 48 36
-0.321695 0.353304 3.54691 72 68 60
-0.199516 0.393664 3.80713 120 114 100
-0.0606902 0.410778 3.78973 98 84 71
-0.0725148 0.415236 3.7551 54 48 30
-0.0258592 0.430182 3.82266 52 40 22
0.0237621 0.420411 3.66717 104 99 90
-0.164145 0.419865 3.85888 121 94 74
0.104198 0.418711 3.43739 95 26 14
-0.425446 -0.247172 3.91692 163 126 125
0.00998462 -0.179302 4.46002 74 71 76
-0.328593 -0.010087 3.95904 148 146 126
-0.31088 0.0124833 3.94525 102 100 93
-0.0564289 0.0401259 3.62618 126 96 62
-0.369432 0.0222026 3.90986 102 98 76
0.821492 0.153684 4.51644 45 36 30
-0.349649 0.0290101 4.0314 98 88 72
-0.320207 0.0637044 3.82405 23 16 8
-0.359651 0.0871195 4.00287 45 36 16
-0.641494 0.15226 4.0924 119 82 69
-0.522742 0.204584 4.14867 134 126 104
-0.318234 0.23499 4.26317 100 96 83
0.711895 0.351004 3.91229 80 68 48
-0.217719 0.263965 4.12351 100 90 62
-0.48075 0.245307 4.17547 91 87 81
-0.417471 0.266195 4.1331 72 68 61
0.563455 0.394217 3.94759 78 64 48
-0.564964 0.257697 3.79008 136 111 106
-0.532931 0.282894 3.85023 94 91 86
-0.524464 0.301484 4.01115 92 88 84
0.4595 0.401604 3.89886 67 56 46
0.366613 0.404663 3.90133 75 52 26
-0.0750215 0.395963 3.80458 98 94 76
0.070185 0.408386 3.52722 136 126 86
-0.191019 0.407681 3.76551 110 72 61
0.0148596 0.425128 3.68733 77 66 54
0.0561352 0.407524 3.39189 58 48 46
1.20274 0.732015 3.22035 112 106 110
-0.382043 -0.234394 3.79463 82 80 88
-0.329855 -0.207347 3.72199 186 120 114
-2.90883 -0.52177 5.91515 106 98 86
-0.212508 -0.0332117 3.64382 162 136 99
-0.324023 -0.00611005 3.87825 145 146 126
-0.319102 0.00520308 4.05971 62 60 48
-0.582662 0.0392817 4.46444 186 174 153
-0.346997 0.0867279 3.9909 120 116 96
-0.302892 0.0976961 3.80825 97 94 82
-0.661965 0.123167 4.19017 190 188 176
-0.485282 0.166036 4.40618 100 98 91
-0.0985356 0.195088 3.71755 94 94 71
-0.267771 0.217144 4.26083 167 159 127
0.805105 0.322119 3.95235 96 48 42
-0.568959 0.191033 4.13875 92 84 74
-0.637893 0.196545 4.00546 128 76 74
0.252789 0.29478 3.84293 101 73 30
0.722749 0.359177 3.79649 104 43 38
-0.612167 0.225545 3.95038 66 62 66
-0.197684 0.289204 4.15134 108 108 86
-0.490836 0.265983 4.02526 79 76 72
-0.41988 0.29597 4.04458 82 74 70
-0.394504 0.298699 3.97345 106 102 87
-0.510571 0.306541 3.99018 104 95 89
-0.0914884 0.342228 3.84961 118 112 76
0.019995 0.354923 3.84711 85 77 53
-0.446426 0.240769 2.72723 118 104 96
0.0607098 0.400281 3.73115 125 118 86
-0.293777 0.404261 4.10823 97 87 80
-0.23016 0.386315 3.82846 60 55 38
-0.191636 0.392872 3.80269 50 44 27
-0.304902 0.0708943 3.8232 132 128 110
-0.424961 0.0880093 4.62988 106 97 76
-0.402562 0.119083 4.43957 66 62 46
-0.352675 0.116128 4.16457 162 151 117
-0.347187 0.162251 4.46659 123 118 94
-0.287026 0.148083 3.87127 34 18 8
-0.396359 0.163272 4.39742 79 78 67
-0.306584 0.179847 4.23845 117 112 96
0.776083 0.318032 3.86666 106 54 49
-0.56728 0.192444 4.18248 106 98 90
-0.273787 0.238494 4.34979 169 162 129
-0.226581 0.252106 4.17962 142 139 122
-0.251213 0.270841 4.12906 60 55 46
-0.61076 0.222933 3.90333 66 62 66
-0.418346 0.263903 4.14679 133 128 116
-0.366742 0.29142 4.03451 148 143 120
-0.228931 0.329905 3.9253 46 44 37
0.0296307 0.361418 3.83593 48 44 28
0.339047 0.403292 3.83904 40 14 7
0.05055 0.43821 3.68039 100 94 74
1.20464 0.727395 3.22277 126 120 124
0.594078 0.0101757 3.91842 136 130 126
-0.387734 -0.0881985 3.92524 187 180 148
-0.322114 0.0614063 3.82837 28 21 13
-0.242573 0.0935067 3.71133 136 134 107
-0.37635 0.153155 4.4286 149 140 115
-0.307729 0.179142 4.23662 116 112 97
-0.340348 0.190436 4.46 56 52 56
-0.32068 0.190552 4.40162 98 96 83
0.789713 0.314427 3.91334 108 62 54
-0.251284 0.237645 4.27493 174 167 129
0.0445036 0.258382 3.77492 17 4 1
0.674062 0.341656 4.00032 78 64 52
-0.426201 0.243189 4.04593 149 142 113
-0.410628 0.275012 4.31286 114 112 104
-0.421565 0.293619 3.97958 80 73 70
-0.152141 0.376481 3.85406 145 137 102
-0.273341 0.366032 3.55411 65 59 52
-0.178486 0.409361 3.78469 124 88 75
-0.432168 -0.294476 3.94838 145 140 140
-0.343793 -0.190031 3.68134 162 70 57
-2.87945 -0.492789 6.1061 106 86 60
-0.285395 0.146868 3.92174 37 22 14
-0.430735 0.159644 4.49868 44 42 46
-0.347935 0.18091 4.33738 56 52 56
-0.452355 0.192298 4.25084 50 48 52
-0.444536 0.233595 4.06162 135 130 102
-0.604136 0.220577 3.84241 84 76 78
0.110251 0.445902 3.78863 128 112 91
0.508028 -0.134321 3.69032 64 62 63
0.413012 -0.0553266 3.68428 89 74 48
0.482785 0.00616173 3.77851 97 78 44
-0.358771 0.114465 4.45155 155 140 102
-0.431843 0.131824 4.64402 114 107 80
0.258165 0.237751 3.70846 92 81 51
-0.557195 0.178751 4.16595 105 102 85
-0.409457 0.199433 4.26048 135 128 108
-0.482353 0.2321 4.17111 132 124 115
-0.31506 0.050053 3.89908 109 102 87
0.343386 0.238821 3.79492 39 18 1
-0.529595 0.182841 4.21286 134 132 121
-0.529653 0.25251 3.95597 99 90 74
-0.181441 0.341459 3.92202 64 64 47
0.0475791 0.413027 3.78125 140 133 105
0.274644 -0.316718 4.19669 216 217 204
0.0173676 -0.0305718 3.5256 102 60 30
-0.21115 0.287213 3.96133 60 60 44
-0.210231 0.298172 4.05392 113 111 94
-0.173694 0.299889 3.95861 111 109 88
-0.140015 0.365831 3.89504 153 146 112
-0.415302 -0.0923211 4.01475 142 137 133
-0.332764 0.00693248 4.0366 100 97 86
0.078752 0.245781 3.71191 68 47 23
0.478648 -0.00236944 3.70402 72 57 36
-0.325042 -0.0420255 3.80163 152 147 126
-0.478266 0.235977 4.13076 85 80 76
-0.166589 0.328518 3.96572 128 122 80
-0.262961 0.333167 3.97552 102 100 88
-0.414459 -0.255096 3.87248 163 88 89
-0.477765 0.180091 4.22333 124 125 108
-0.363239 0.0744045 4.06958 70 60 42
0.483998 0.0503264 3.72963 38 30 20
-0.239435 0.385504 3.83359 95 90 70
-0.278367 0.399206 3.9019 122 119 102
-0.265418 0.272336 4.14016 106 104 92
-0.154166 0.4086 3.85643 82 76 58
-0.109612 0.393929 3.44997 106 101 82
-0.567968 0.195039 4.11616 90 86 70
-0.175425 0.378029 3.84632 139 134 105
-0.192936 0.311494 4.01908 135 133 92
0.576893 0.388868 3.59346 162 125 104
-0.0975554 0.382391 3.46957 89 86 68
0.113807 0.411277 3.78845 48 39 7
-0.180789 0.390394 3.9016 92 86 60
-0.163906 0.406783 3.86865 70 67 48
-0.189556 0.413064 3.82168 128 104 90
0.0528597 0.415031 3.71935 88 84 57
-0.108717 0.414776 3.81991 68 64 45
-0.0966421 0.433505 3.81761 82 54 42
-0.0938633 0.436088 3.83533 76 48 36
0.076492 0.42274 3.62715 74 56 36
-3.15133 -1.29722 5.8918 151 152 139
-3.01233 -0.2906 5.55384 108 81 54
-2.92552 -1.24242 5.82953 114 97 76
-2.91434 -1.32522 5.90684 114 112 92
-2.8177 -0.967267 5.90132 142 134 116
-2.91249 -1.32291 5.89542 127 128 106
-2.76926 -1.22639 5.79456 95 86 77
-2.7707 -1.2202 5.7904 106 96 81
-0.27105 0.152143 3.88582 126 119 88
0.465247 0.443189 3.915 82 72 62
-0.430694 -0.279359 3.9682 173 169 149
-0.416588 -0.266725 3.89843 141 58 50
-0.429902 -0.276707 4.04487 114 111 106
0.493938 -0.138177 3.63917 26 21 30
-0.403862 -0.254684 3.86978 128 70 55
-0.370163 -0.24683 3.8938 180 178 168
-0.375475 -0.237528 3.83024 60 60 73
-0.361254 -0.223697 3.75801 49 43 32
-0.368573 -0.216545 3.77097 18 17 22
-0.318994 -0.208555 3.73174 150 69 58
-0.252528 -0.179495 3.63433 78 78 84
-0.303831 -0.183206 3.68816 206 166 136
-0.0806436 -0.133853 3.49644 32 33 46
-0.361791 -0.171355 3.74936 176 151 84
-0.405737 -0.17767 3.85087 160 160 132
-0.382297 -0.155661 3.81353 172 155 112
-0.409988 -0.102517 3.95615 152 148 126
-0.397555 -0.0932595 4.00634 168 162 145
-0.403826 -0.0905461 3.89473 140 132 105
-0.381044 -0.0798481 3.84083 186 176 150
-0.38673 -0.0784677 3.884 144 140 115
-0.352014 -0.0722869 3.77295 147 154 142
0.268016 0.0355967 3.5409 44 39 24
-0.379887 -0.0406526 3.87024 78 75 64
-0.36711 -0.0378858 3.84459 138 136 131
-0.373665 -0.0410729 4.10589 112 108 99
-0.362026 -0.027739 3.83173 80 78 64
-0.368405 -0.0253738 3.84787 161 156 142
-0.359402 -0.0209374 3.82942 163 161 144
-0.384383 -0.0178194 3.9559 120 112 108
-0.303751 -0.00581998 3.75196 53 52 42
-0.3531 -0.00154415 3.88287 128 122 114
-0.393271 -0.00515398 3.9665 128 116 94
-0.361107 7.03577e-05 3.8869 106 98 89
-0.405478 -0.00830086 4.75509 112 38 20
-0.313532 0.00524283 4.00249 132 130 118
0.828817 0.148053 4.51121 34 26 16
-0.353147 0.00474619 3.80161 107 102 88
-0.328233 0.0187044 3.791 113 108 101
-0.472588 -0.000286228 4.64111 58 54 58
-0.439309 0.00373361 4.77138 44 34 26
0.749885 0.156481 4.19856 79 52 46
-0.361302 0.0251176 3.95254 132 130 108
-0.345318 0.0253935 3.88548 56 49 42
-0.338723 0.031384 3.97229 101 94 76
-0.335579 0.0326292 3.83626 80 76 70
-0.320344 0.037679 3.83226 77 68 61
-0.33694 0.0383724 3.85138 24 20 8
-0.296446 0.051669 3.74509 116 114 106
-0.355649 0.0509863 4.13717 60 50 36
-0.353589 0.0507879 3.91106 58 54 52
-0.295386 0.0572789 3.81523 88 84 76
-0.564319 0.0324502 4.52969 62 57 67
0.810388 0.215627 4.11351 73 44 28
-0.319413 0.0758175 3.83639 84 76 64
0.0531555 0.119434 3.586 141 93 60
0.0379304 0.120882 3.58942 142 96 66
-0.341987 0.0860872 3.96832 94 89 71
-0.294587 0.0908675 3.81452 91 88 78
-0.345146 0.0934044 4.04389 132 128 108
0.87602 0.252341 4.19094 50 42 24
-0.288171 0.100586 3.82843 20 16 8
-0.284681 0.102894 3.76048 72 69 62
-0.35769 0.112324 4.61895 140 120 80
-0.355074 0.122633 4.62522 170 158 128
-0.240482 0.119547 3.76191 94 77 64
-0.429823 0.113959 4.54672 58 49 30
0.852002 0.27606 4.07953 84 50 39
-0.287972 0.131331 3.83836 125 114 90
-0.506356 0.120944 4.47936 90 84 57
-0.303546 0.133381 3.88141 138 125 100
0.81852 0.287262 3.98154 70 62 60
-0.311932 0.164245 4.5342 56 53 46
-0.316962 0.165306 4.35902 136 134 120
-0.285809 0.155775 3.87235 25 10 6
-0.302243 0.16953 4.23507 64 62 56
-0.657284 0.124199 4.19301 186 180 162
-0.298443 0.179863 4.44917 67 65 56
0.342207 0.247214 3.85905 103 84 50
0.819266 0.317855 3.96066 92 54 45
-0.187502 0.191499 3.77848 64 58 32
-0.266699 0.204991 4.35452 91 85 63
-0.33643 0.200036 4.37469 110 105 96
0.770037 0.337251 4.00215 122 110 93
-0.343948 0.210935 4.33485 138 135 120
0.756548 0.341267 3.87677 56 46 40
-0.208821 0.217066 3.84818 58 56 47
0.735764 0.337825 3.78483 50 40 35
-0.41559 0.218627 4.34035 145 138 124
0.702068 0.348348 3.87501 67 58 30
-0.263286 0.23376 4.03889 74 68 54
-0.635971 0.186017 4.01923 182 158 140
-0.240844 0.250498 4.27168 163 158 134
-0.214245 0.253878 4.26723 159 156 128
0.732359 0.358966 3.79628 86 46 36
-0.311953 0.247672 4.23642 68 64 45
-0.183944 0.243994 3.85087 76 69 54
0.653927 0.361631 3.99105 59 44 30
0.672287 0.360953 3.91564 84 70 54
-0.631838 0.197931 4.07932 120 68 63
-0.154686 0.256765 3.91451 37 34 18
0.224329 0.303213 3.84951 62 40 7
0.70273 0.363235 3.76446 154 122 106
-0.315693 0.254536 4.23828 146 141 120
-0.25577 0.2526 4.04683 104 98 76
-0.289988 0.26103 4.23248 60 53 44
-0.234596 0.257919 4.02466 82 76 44
0.257724 0.320812 4.09311 84 61 16
0.657286 0.366009 3.84869 104 93 64
0.632081 0.354042 3.63587 76 70 64
-0.22481 0.271138 4.15568 154 149 126
-0.170199 0.266623 3.93574 56 46 18
0.170399 0.309361 3.88142 109 94 47
-0.478053 0.241141 4.12558 66 64 53
