ply
format ascii 1.0
element vertex 1331
property float x
property float y
property float z
property uchar red
property uchar green
property uchar blue
end_header
2.78565 0.267834 6.47269 155 117 98
-2.19287 0.314783 6.75986 158 108 84
-1.9983 0.293521 6.66879 191 144 120
-1.82078 0.29001 6.62955 154 105 84
-1.15887 0.285361 6.77777 126 78 62
0.638513 0.252258 5.80255 114 24 17
2.06202 0.308537 7.01452 95 54 46
2.53724 0.270767 6.56488 168 138 131
2.7452 0.271892 6.42237 174 143 131
-2.5372 0.320462 7.03216 150 125 103
1.04012 0.261854 5.88921 144 83 69
-0.925531 0.309686 7.05607 134 79 57
2.09964 0.331713 7.06411 98 75 64
2.96263 0.289296 6.40609 168 140 133
-2.19215 0.316338 6.80073 158 108 82
-1.02679 0.322824 7.07641 82 34 21
0.387 0.259972 5.61528 72 22 20
1.9896 0.35204 7.51325 116 98 79
2.51218 0.296354 6.53026 175 143 133
3.47172 0.306674 6.60534 152 128 118
-2.28672 0.257792 5.19739 110 100 102
-2.60681 0.35586 7.20532 151 127 107
-1.08945 0.327998 6.98084 96 49 34
0.0496831 0.330673 7.00364 106 60 32
0.406569 0.268536 5.63373 37 11 5
2.22549 0.319403 6.73352 132 104 101
2.2516 0.318571 6.7501 175 148 141
2.42788 0.308783 6.60833 142 106 96
2.49435 0.32912 6.73545 126 88 72
3.58669 0.317435 6.72161 172 140 126
-2.15798 0.26658 5.33702 122 56 47
-1.16188 0.314872 6.79181 124 77 54
-0.927351 0.333477 7.07324 111 56 34
0.471295 0.266338 5.58635 96 26 24
2.50423 0.311288 6.57847 156 123 109
2.96575 0.310381 6.41035 165 140 135
3.28604 0.312302 6.50432 184 148 130
3.27427 0.308217 6.41132 182 128 108
-0.0266652 0.347651 7.03143 115 76 52
0.228295 0.297311 6.2403 135 56 36
2.52411 0.34545 6.746 166 136 128
2.50846 0.317907 6.53632 186 160 154
3.15589 0.318736 6.44793 154 126 115
3.23425 0.313438 6.54942 163 130 113
3.36094 0.315939 6.4884 140 104 94
-2.27158 0.286007 5.21023 82 64 68
-2.58567 0.376414 7.18254 139 112 88
-1.82164 0.32746 6.58388 154 104 82
-0.00581371 0.345263 6.99177 96 56 30
-1.16256 0.341214 6.78962 110 62 39
-1.15394 0.351577 6.99192 106 58 38
-1.10037 0.347463 6.98933 90 42 28
2.01083 0.383413 7.32412 88 64 40
2.50563 0.35438 6.80446 198 176 168
2.82455 0.327087 6.46732 172 148 139
2.84791 0.333387 6.47343 161 128 114
2.98505 0.328868 6.4605 178 153 146
3.2909 0.333759 6.50793 168 132 114
-1.23935 0.355536 6.95439 120 74 51
-0.91937 0.353409 6.89865 88 38 22
-0.0232685 0.36935 7.04369 94 56 29
2.87987 0.342953 6.47241 138 99 80
-0.0436633 0.373193 7.0169 108 70 44
-0.00539418 0.372837 7.02998 94 56 26
2.15447 0.361066 6.8339 95 51 51
3.28952 0.341787 6.44582 176 130 108
-2.33613 0.375592 6.94291 128 80 54
-1.26028 0.365116 6.66564 112 63 38
-1.16227 0.362249 6.79908 96 45 25
-0.411111 0.380737 6.95944 176 124 98
-0.0615543 0.378669 6.93178 115 76 50
0.381727 0.306534 5.70583 74 14 8
0.398271 0.305271 5.70761 57 9 5
2.17768 0.377601 6.85953 101 72 68
2.26664 0.364713 6.73998 165 139 132
2.91509 0.353758 6.43078 160 126 113
2.94773 0.341286 6.40208 185 162 156
3.52217 0.354419 6.57029 106 74 56
-1.27683 0.368483 6.64127 120 70 46
-0.837349 0.388541 7.0338 134 80 54
-0.0202899 0.400682 7.02021 94 56 27
1.99948 0.424736 7.30457 98 74 50
3.2204 0.357056 6.45787 142 108 94
3.3082 0.365798 6.45871 182 142 122
3.3724 0.364265 6.51439 100 45 36
-1.82864 0.35686 6.59486 150 102 82
-1.11735 0.376406 6.94794 89 40 25
-1.04609 0.390723 7.1736 68 24 13
2.10118 0.380167 6.98156 80 70 56
2.25213 0.37425 6.7572 139 114 110
2.45303 0.352931 6.83414 187 164 156
2.53375 0.381114 6.83347 226 206 199
3.12428 0.345837 6.43313 178 153 146
3.43815 0.365861 6.51631 50 28 19
-1.13088 0.383548 6.94526 89 40 24
0.369682 0.324993 5.68091 110 22 16
0.38747 0.325698 5.6804 95 18 12
2.22907 0.382647 6.76978 122 101 99
-2.3204 0.311197 5.18662 21 17 30
-2.30428 0.394464 6.93783 143 93 70
-1.32694 0.381854 6.63655 112 62 37
-1.25801 0.380396 6.58146 110 60 31
-0.77567 0.400832 6.95191 143 86 59
-0.543006 0.403934 6.94767 158 103 76
-0.140423 0.409706 6.94731 121 73 46
-0.562671 0.409313 6.90889 129 74 44
2.10551 0.408225 6.98688 42 20 14
2.25383 0.391519 6.7493 176 150 144
2.53357 0.402204 6.88117 218 204 197
3.1256 0.370363 6.44986 180 156 148
3.33722 0.383933 6.48215 177 132 114
3.43997 0.396719 6.52313 106 83 70
-1.71691 0.387584 6.72475 124 72 52
-1.08663 0.430789 6.96153 86 39 26
-0.758688 0.415127 6.97448 123 66 34
-0.428217 0.415635 6.93118 162 108 82
2.20954 0.404205 6.8131 123 113 102
2.23572 0.399206 6.75507 165 142 136
3.36199 0.392545 6.49529 92 48 36
-2.31132 0.321123 5.15588 111 106 112
-2.30786 0.322982 5.19135 103 97 105
-2.29578 0.418755 6.89514 120 76 49
-1.81896 0.398575 6.586 144 96 79
-0.737632 0.427078 6.98081 123 67 37
-0.71751 0.430389 7.00087 141 86 56
2.19778 0.410669 6.82212 135 124 112
3.39366 0.398072 6.51131 34 13 6
3.42407 0.403015 6.55279 54 38 29
-2.3028 0.331184 5.23425 87 76 84
-1.42944 0.417536 6.65847 142 92 70
-1.40651 0.410513 6.62055 120 69 46
-0.697113 0.437865 7.05815 136 83 50
2.1048 0.430895 7.02378 73 56 43
2.58111 0.430976 6.96616 212 192 184
2.59807 0.438192 6.91998 195 173 166
-2.26265 0.337065 5.23377 90 54 54
-2.27756 0.432287 6.88228 128 80 54
-1.44405 0.4169 6.63322 135 86 64
-1.12348 0.436489 6.90052 102 57 38
-0.643457 0.442565 7.03402 117 63 32
-0.606279 0.436571 7.02718 120 67 37
1.04775 0.375607 5.74514 142 50 42
2.12709 0.435763 6.97599 100 75 67
2.62107 0.41396 6.5375 160 126 111
2.67127 0.424007 6.60669 161 134 126
3.38743 0.424418 6.52709 148 116 100
-1.81119 0.421639 6.62321 133 84 68
-0.951591 0.447742 6.96316 80 33 18
2.59717 0.415593 6.53074 164 129 116
-2.25123 0.35465 5.14349 104 92 98
-1.34375 0.434364 6.64196 136 86 59
-0.560961 0.443936 6.87697 120 66 34
2.68971 0.432646 6.54557 146 133 126
3.3236 0.418815 6.51343 52 24 13
-2.24637 0.347371 5.22927 100 38 38
-1.46508 0.4406 6.64344 100 52 30
-1.08748 0.469119 6.91629 88 47 31
-0.99126 0.46869 7.0539 62 20 10
-0.90027 0.460383 6.98056 154 103 80
0.337625 0.391471 5.72221 153 26 22
0.381997 0.393211 5.75427 149 25 24
-2.24316 0.460401 6.84126 126 80 52
-2.04829 0.449616 6.67653 192 146 124
-1.47938 0.440501 6.59189 107 58 36
-1.0479 0.482706 7.06216 91 54 43
-1.01392 0.480165 7.05869 63 26 18
-0.646861 0.473698 6.99384 122 68 36
3.23691 0.437439 6.50866 87 58 49
3.26229 0.43462 6.51502 54 24 11
-1.12712 0.46004 6.75612 102 56 37
0.45344 0.370929 5.49571 149 26 23
3.29044 0.442935 6.50697 74 44 30
3.32206 0.44435 6.54035 100 72 57
3.41396 0.464214 6.67851 152 125 107
2.57143 0.453669 6.6551 182 145 141
2.83373 0.447165 6.49399 162 144 137
3.44862 0.463534 6.69557 164 138 120
-2.23415 0.48167 6.8318 124 79 52
-1.23975 0.472396 6.82572 102 58 38
-0.923331 0.487058 6.92118 75 28 13
0.579534 0.395567 5.63108 137 27 26
0.744702 0.401831 5.56407 98 21 14
3.01535 0.457429 6.464 182 140 132
3.45085 0.462199 6.63815 169 144 134
3.57715 0.46754 6.73514 114 95 78
-1.38666 0.474972 6.70507 158 105 79
-1.29178 0.494263 6.7459 119 72 50
-1.10857 0.497673 6.86875 72 34 22
0.615419 0.406421 5.64733 77 16 8
0.769577 0.409641 5.64555 95 16 7
2.03623 0.491418 7.04705 103 74 56
2.04771 0.484409 7.01608 88 52 30
2.35703 0.473059 6.65645 151 120 114
3.32689 0.47234 6.53169 182 154 130
3.49945 0.467475 6.68339 131 108 94
-1.55396 0.48454 6.68929 100 50 27
-0.900187 0.498135 7.01136 108 58 30
-0.685674 0.505152 6.9378 172 118 86
-0.642549 0.504558 6.99078 174 120 90
-0.612396 0.505666 6.95911 170 115 86
-0.590205 0.497823 6.92311 170 116 87
-0.552199 0.500505 6.95331 178 123 94
0.210648 0.45016 6.09271 134 85 76
0.788028 0.413525 5.65318 102 16 8
0.806365 0.411158 5.65795 140 29 24
2.53273 0.474274 6.65571 182 154 146
2.6381 0.474152 6.51301 126 52 46
2.84286 0.465093 6.4877 160 144 136
-1.81282 0.497716 6.67115 126 77 62
-1.56675 0.490831 6.64278 91 42 21
-1.33904 0.479712 6.50369 150 96 67
0.265043 0.428814 5.81405 137 50 42
1.09178 0.431549 5.82857 136 114 99
2.61162 0.48294 6.65107 116 36 40
2.61934 0.488358 6.61845 117 38 36
2.63355 0.483856 6.57159 144 72 62
2.81982 0.468996 6.50139 112 112 102
3.01005 0.477265 6.43873 140 52 44
3.07997 0.481807 6.53731 150 97 89
-1.59225 0.501259 6.67359 94 46 26
0.557713 0.420248 5.60049 125 23 20
0.593216 0.422294 5.61525 63 18 10
0.74535 0.42184 5.50048 70 26 15
2.36584 0.495408 6.67529 123 92 85
3.00485 0.480898 6.48518 154 106 94
-2.36352 0.508424 6.86185 128 100 76
-0.0220789 0.464276 6.12698 106 69 48
0.784462 0.427725 5.60883 73 19 10
2.09136 0.516516 7.00514 100 66 52
2.52788 0.489931 6.62443 158 112 106
2.67665 0.495561 6.58436 122 28 27
-2.30707 0.401737 5.20669 106 90 95
-1.05978 0.535135 6.90976 99 64 56
-0.606723 0.527735 6.96709 168 114 88
0.577395 0.428459 5.57538 68 16 9
0.826905 0.431152 5.6127 142 21 20
1.07663 0.45181 5.74486 133 112 100
1.2937 0.472176 6.08812 152 136 119
3.38884 0.504846 6.65109 166 136 113
-0.731003 0.530209 6.96036 184 134 104
-0.550636 0.522123 6.86908 200 146 115
2.06716 0.531713 7.02896 116 86 71
2.60848 0.52663 6.71841 129 32 34
3.35683 0.507333 6.62464 174 142 112
-2.34311 0.533586 6.84941 130 101 76
-0.0620023 0.495262 6.24814 130 98 82
1.27796 0.479904 6.13421 129 112 95
2.10394 0.53938 7.0393 110 74 60
2.52397 0.519569 6.6308 164 122 120
2.66909 0.505901 6.45745 133 28 18
2.70726 0.511896 6.48824 112 34 16
-1.09081 0.56162 6.79936 90 57 47
-0.754927 0.541651 6.91896 128 78 54
-0.672967 0.549303 6.90196 138 89 59
-0.00713382 0.490572 6.2156 142 112 96
0.554049 0.441634 5.55444 108 18 14
0.610367 0.448298 5.54093 90 86 70
0.684688 0.441869 5.51836 67 52 40
0.861465 0.45134 5.64497 158 24 25
1.29116 0.491366 6.10798 114 98 82
-0.728297 0.552738 6.94456 126 76 52
-0.679347 0.546655 6.8215 126 76 48
-0.585306 0.555665 6.92564 130 78 52
2.80627 0.519639 6.45518 133 88 82
3.70069 0.573267 7.07047 145 125 110
-2.22134 0.444937 5.36999 112 21 26
-2.20118 0.443321 5.36535 111 24 28
-2.18217 0.444108 5.36635 121 19 20
-2.17745 0.444993 5.39949 124 18 18
-2.13508 0.449621 5.36963 118 38 36
-2.2749 0.557569 6.70253 138 108 85
-2.17892 0.548979 6.70153 118 74 43
-2.09541 0.547185 6.68861 162 112 88
-0.658067 0.55853 6.93465 122 70 42
-0.53725 0.558383 6.90598 130 79 52
-0.522819 0.569669 6.95424 130 80 51
-0.0225004 0.505176 6.18978 118 89 74
0.211387 0.475136 5.82117 140 116 106
1.26975 0.496953 6.08532 89 68 54
2.51489 0.532077 6.61008 150 114 110
-2.30624 0.433766 5.20481 97 40 42
-0.501044 0.582622 7.04168 124 74 45
0.551944 0.458696 5.5317 111 28 20
0.815043 0.459433 5.5644 111 25 20
1.28633 0.514047 6.08522 102 85 71
-1.35452 0.544948 6.61075 74 26 10
-0.456073 0.583527 7.02184 134 85 58
0.612514 0.473586 5.54885 66 52 38
1.0808 0.49018 5.81337 132 108 98
2.61712 0.556596 6.62663 109 40 42
2.67248 0.541511 6.46877 182 115 93
-2.16212 0.471147 5.43829 115 34 30
-2.15188 0.559186 6.6307 109 66 34
-2.11523 0.560052 6.65167 122 75 45
-2.09995 0.565205 6.67657 140 90 60
-2.0776 0.569878 6.71359 144 92 66
-2.06013 0.572761 6.73492 144 93 64
-0.381945 0.577254 6.9022 130 80 55
0.173107 0.526916 6.04487 120 91 81
0.217696 0.493104 5.77007 164 142 133
0.750683 0.481234 5.55578 80 67 52
0.787011 0.475357 5.54834 95 83 68
1.31525 0.514726 6.06198 122 106 92
2.51712 0.559169 6.6016 172 142 136
3.19703 0.556907 6.57059 72 54 48
-2.24231 0.455303 5.3147 116 22 26
-2.04857 0.581476 6.79587 124 74 45
0.554046 0.476141 5.53267 116 32 26
2.65493 0.574247 6.6184 112 50 54
2.78534 0.534926 6.49304 172 113 80
3.21411 0.560427 6.56146 36 22 16
-1.36084 0.575817 6.65332 112 61 41
0.00412497 0.53432 6.09666 132 108 100
1.06592 0.497158 5.74052 136 100 93
1.10366 0.505548 5.86935 121 104 90
1.22713 0.524036 6.05428 116 99 89
2.52889 0.56926 6.60269 90 56 52
3.2558 0.5714 6.51176 168 136 111
-2.1549 0.485872 5.42953 126 48 40
-0.955773 0.589056 6.87028 155 126 116
0.0352356 0.531099 6.04086 100 72 60
0.0564925 0.544488 6.07608 104 80 68
0.229541 0.522604 5.9572 132 108 99
1.32259 0.530453 6.05521 126 109 97
2.24572 0.627017 7.0055 112 68 50
3.23639 0.577341 6.57488 35 24 16
3.25794 0.579196 6.566 126 106 88
-2.24283 0.476983 5.30757 106 33 35
-0.0317564 0.531182 6.05686 150 122 111
0.813987 0.511763 5.55347 122 24 20
-2.27702 0.603612 6.76201 118 89 66
-1.39721 0.603421 6.73058 108 58 40
2.26401 0.637725 6.95444 112 66 45
2.54425 0.588659 6.61492 160 132 126
2.67711 0.585069 6.50138 128 66 58
-1.6508 0.607153 6.69675 114 68 48
-0.998069 0.617413 6.82015 148 119 112
0.0294887 0.552307 6.03001 135 111 106
0.230496 0.533432 5.85258 139 112 104
1.27566 0.542121 6.08869 90 62 53
1.32532 0.556192 6.08711 136 118 107
2.7881 0.590393 6.5181 150 80 60
2.82834 0.598331 6.52175 164 116 110
-2.19256 0.496417 5.34832 64 24 30
-2.1933 0.4959 5.37015 94 40 43
-2.18299 0.488772 5.37563 106 37 36
-2.26099 0.616006 6.78127 104 70 42
-2.17223 0.620054 6.74832 114 68 39
-1.61222 0.608316 6.63293 118 72 51
-1.35043 0.636284 6.86254 110 64 48
-0.0246917 0.562228 6.06534 130 104 94
0.210792 0.546422 5.90992 132 106 97
1.2461 0.563164 6.12609 132 116 108
2.50479 0.67652 7.11383 210 189 182
2.78689 0.592442 6.47132 127 56 46
-2.27402 0.62655 6.75102 151 123 106
0.478108 0.512942 5.50298 132 39 34
0.523956 0.532236 5.66744 110 30 26
1.03869 0.534739 5.7186 150 40 39
2.55018 0.576042 6.392 30 14 12
2.69453 0.607912 6.53464 118 78 73
0.267652 0.550556 5.79856 142 42 38
0.557345 0.527666 5.58862 98 16 12
1.3186 0.568774 6.05403 136 118 109
-2.23089 0.507268 5.31626 74 43 50
-2.15656 0.635069 6.67027 142 94 66
0.430347 0.550233 5.7313 144 53 52
0.679871 0.533947 5.57165 50 39 24
0.796766 0.541711 5.59301 116 74 68
0.857005 0.538331 5.63143 135 39 37
2.57209 0.610805 6.50724 160 134 129
2.81921 0.620384 6.53877 132 91 87
-2.31048 0.500965 5.19498 110 23 24
-2.26474 0.511097 5.32196 108 32 34
-2.17604 0.630681 6.6505 107 66 33
-2.13418 0.654653 6.75111 164 112 86
-2.0328 0.646623 6.629 180 130 102
-1.11195 0.646042 6.71737 84 52 42
0.414319 0.551658 5.67782 146 54 50
0.77994 0.543037 5.58456 74 34 28
0.880895 0.543812 5.63955 132 40 36
1.05268 0.54814 5.74798 140 58 57
2.57912 0.694825 7.11502 204 180 174
2.61519 0.623349 6.56188 114 92 86
2.63652 0.625317 6.56332 134 108 102
3.43102 0.611688 6.7279 131 100 86
-1.56265 0.638759 6.62265 83 40 23
-1.55066 0.644741 6.67978 74 32 16
-1.53896 0.649868 6.71271 66 28 14
-1.51825 0.653023 6.72716 50 16 6
0.396493 0.558275 5.68378 146 38 34
0.585086 0.555913 5.65057 90 20 13
0.900674 0.543399 5.61178 136 30 32
1.22981 0.589742 6.04989 117 102 92
2.70417 0.637136 6.52113 128 103 96
3.15594 0.641043 6.64106 167 140 130
3.23585 0.637421 6.57682 144 112 97
-2.19913 0.643873 6.64249 144 114 92
-0.0172261 0.590422 6.0799 135 116 108
0.0631475 0.596305 6.05966 102 78 67
1.19696 0.586568 6.00046 134 118 108
1.28874 0.586656 6.09786 116 94 86
2.32437 0.671184 6.90438 110 68 50
-2.3585 0.524865 5.27155 88 37 42
-2.30639 0.524323 5.23135 111 22 26
-2.25439 0.530362 5.33988 89 46 46
-2.18844 0.663095 6.65282 126 90 64
-2.0116 0.668017 6.63425 144 94 68
-2.02249 0.687822 6.77721 142 96 73
-1.10043 0.66082 6.73332 130 102 92
-1.07932 0.657971 6.73365 136 110 100
0.760319 0.556954 5.61059 73 46 36
0.924833 0.556497 5.63663 144 26 29
1.03545 0.570461 5.75091 156 32 34
1.05299 0.569267 5.74988 134 57 54
2.78027 0.653276 6.52874 108 87 84
3.29057 0.632918 6.56647 160 130 114
-1.53278 0.662002 6.65526 104 66 50
-1.12865 0.676689 6.73775 119 89 79
2.72142 0.652494 6.54239 103 80 74
-2.15995 0.677054 6.68501 118 76 50
0.673891 0.576809 5.6331 84 68 54
0.730456 0.568783 5.62266 98 56 46
1.29304 0.616737 6.11214 116 95 87
2.74964 0.658059 6.539 88 68 66
-2.32938 0.544479 5.26587 96 38 42
-1.10309 0.682454 6.74714 154 126 118
0.943528 0.577782 5.69874 126 36 36
1.04491 0.584167 5.7012 157 96 86
2.30507 0.663025 6.65638 112 74 59
2.76996 0.667484 6.53694 179 152 147
3.30618 0.669898 6.66712 159 130 118
-2.10714 0.686317 6.68246 122 74 46
0.979052 0.584076 5.64618 162 28 28
2.41933 0.695439 6.85881 125 89 74
-2.25055 0.568548 5.36643 78 12 10
-2.22995 0.566956 5.35833 92 16 16
-2.22517 0.562764 5.37248 104 13 15
-2.16192 0.565534 5.43441 120 22 18
-2.19503 0.565174 5.53591 116 36 26
-2.12625 0.686303 6.59248 144 104 86
-2.11862 0.683269 6.62613 124 80 56
-2.07152 0.705702 6.70852 117 70 41
-1.29087 0.709977 6.76536 98 56 38
-1.19141 0.70187 6.7904 120 86 75
-0.0126074 0.63329 6.02358 146 122 113
0.000169651 0.638736 6.07446 123 102 95
0.356122 0.588245 5.6526 155 35 32
0.620807 0.600587 5.7047 118 28 22
0.639467 0.598852 5.68041 147 28 23
1.27188 0.635651 6.08331 130 110 97
1.29234 0.636538 6.11934 114 94 84
1.31199 0.622082 6.13038 136 118 109
2.54363 0.746043 7.09673 140 106 91
-2.34642 0.565023 5.2919 69 28 34
0.69543 0.598837 5.69248 142 33 25
0.713556 0.596319 5.65596 136 37 28
-2.1024 0.709346 6.69461 128 84 60
-1.3538 0.706895 6.68822 126 86 72
-1.33654 0.714317 6.7079 128 88 72
-1.22155 0.712055 6.73839 134 102 92
2.49028 0.75815 7.08346 132 96 84
-2.15946 0.586855 5.45458 110 24 16
-2.14549 0.588217 5.46314 139 97 79
-2.12966 0.716497 6.70646 158 119 100
-2.06522 0.728072 6.77053 133 90 68
-1.30849 0.72315 6.74062 127 92 80
-1.25962 0.71395 6.67274 130 96 85
-1.24123 0.710059 6.68567 137 104 93
0.00877897 0.651649 6.05025 151 126 116
0.0325738 0.643046 6.02111 130 103 90
0.354045 0.607955 5.65035 152 50 43
0.631128 0.62807 5.72845 122 24 22
0.801998 0.603109 5.66693 162 144 137
0.967459 0.611558 5.70433 136 33 34
0.689806 0.615721 5.68884 156 30 26
0.707101 0.617641 5.67738 133 39 31
0.783628 0.614356 5.67643 180 158 152
0.874218 0.638424 5.67568 118 104 100
-2.33921 0.582435 5.28612 108 31 35
-1.33677 0.735345 6.73766 158 128 120
-2.35871 0.597299 5.28471 98 28 32
0.546449 0.641717 5.6665 125 114 112
0.623426 0.64008 5.69781 130 28 27
0.703869 0.638329 5.68776 141 39 38
0.762873 0.646278 5.69037 145 126 119
0.97483 0.638737 5.70853 138 37 37
2.74928 0.731262 6.54953 166 138 130
0.348185 0.629723 5.66452 156 46 42
0.555677 0.636899 5.6406 108 95 92
3.26709 0.75709 6.72985 140 106 95
0.470837 0.644592 5.62591 191 172 167
3.34362 0.757613 6.77544 152 124 114
-2.2241 0.63634 5.53618 142 92 67
0.621622 0.658234 5.69494 134 25 26
0.70209 0.661085 5.70593 152 56 54
0.980994 0.667366 5.73665 138 26 26
2.80447 0.743812 6.54851 134 98 86
-2.25603 0.643005 5.49626 132 60 29
-2.24994 0.646092 5.53566 138 70 35
0.810315 0.645212 5.61986 122 106 100
0.239302 0.693093 6.03702 150 69 58
0.345418 0.656359 5.70348 154 46 42
-2.25543 0.639362 5.38513 121 54 17
0.613905 0.677727 5.6843 134 24 25
0.974034 0.67923 5.72317 150 66 65
3.02886 0.787908 6.71018 137 104 93
-2.25687 0.640772 5.36359 112 24 3
0.350192 0.673681 5.69046 150 47 42
0.33891 0.693743 5.75524 157 30 26
0.459755 0.690418 5.74323 89 70 62
0.604254 0.699675 5.70255 130 28 30
2.53256 0.885492 7.25622 185 164 156
2.60886 0.90684 7.3082 174 152 145
0.705084 0.698031 5.71358 152 49 46
0.966213 0.704085 5.73956 136 25 29
0.36141 0.699133 5.70512 148 44 40
0.843418 0.689578 5.645 31 16 7
0.81701 0.705849 5.70436 52 32 26
0.497865 0.704888 5.64148 96 75 68
0.952133 0.72368 5.74788 141 26 24
-2.34849 0.686113 5.41871 135 60 23
0.357252 0.715075 5.72432 152 29 22
-2.41494 0.704511 5.47108 121 37 20
0.480725 0.715838 5.61416 132 112 105
0.536141 0.716255 5.68799 144 112 106
0.770145 0.745871 5.7514 140 109 102
0.899442 0.725411 5.66653 144 118 112
-2.43736 0.714368 5.46961 122 42 34
0.399821 0.740101 5.7407 136 70 64
0.813082 0.7313 5.68267 134 116 112
0.856271 0.731486 5.71374 136 119 113
-2.26284 0.728114 5.635 149 118 85
0.248098 0.785327 5.99414 162 88 76
0.424987 0.746361 5.73913 144 98 92
0.907002 0.756806 5.70436 140 49 46
0.871276 0.754539 5.71386 143 98 92
1.40955 0.846487 6.33695 158 139 128
1.50139 0.873453 6.59399 162 143 132
-2.13953 0.846189 6.24833 151 132 116
-1.84507 0.878416 6.45031 154 130 118
0.890092 0.778909 5.74745 146 29 27
1.05111 0.795393 5.90277 151 82 76
-2.25873 0.76983 5.69276 128 85 68
1.04613 0.810328 5.87505 150 89 82
-2.46249 0.785403 5.5714 130 88 64
-2.28281 0.794411 5.71559 121 56 34
0.372124 0.836662 5.8238 136 42 36
-2.46115 0.805927 5.57049 132 90 68
-2.25462 0.806725 5.68701 113 46 34
-1.85854 0.870576 6.22605 151 129 117
0.909388 0.843947 5.79511 95 39 33
0.929317 0.847322 5.83978 137 28 30
-2.48227 0.829716 5.60597 112 66 50
0.40287 0.855039 5.79496 102 52 47
-2.31903 0.843635 5.63719 134 66 36
-2.29828 0.83917 5.637 131 52 36
-2.28061 0.838538 5.67278 114 18 17
-2.27555 0.850634 5.72952 124 60 50
0.425757 0.867975 5.85051 124 46 42
-2.48656 0.851538 5.61949 112 59 50
0.269747 0.881267 5.91022 153 70 58
0.841645 0.875238 5.83657 141 57 50
0.8599 0.872622 5.831 130 51 41
-2.42536 0.844799 5.59118 120 27 14
-2.39594 0.853132 5.60212 142 38 14
-2.36459 0.856302 5.63693 136 40 16
-2.27443 0.871903 5.73095 131 74 62
1.02479 0.892529 5.89539 155 32 27
0.275561 0.907988 6.02756 154 76 66
0.868034 0.902671 5.90396 132 35 29
0.579273 0.927351 6.00287 158 28 29
1.01439 0.912707 5.90064 146 42 39
0.271287 0.970194 6.16677 126 70 59
-2.30223 0.932972 5.77214 107 32 18
0.320197 0.956711 6.04212 130 38 34
0.950171 0.941348 5.97737 152 56 50
1.03466 0.923487 5.89908 160 118 106
-2.28956 0.934257 5.82347 128 77 64
-2.49714 0.898987 5.65427 135 78 70
0.503026 0.964734 6.00309 137 74 73
0.557791 0.959561 5.99194 112 24 22
0.690987 0.986673 6.15492 120 31 27
0.763066 0.981112 6.1555 145 59 56
-2.50858 0.901321 5.62567 152 125 114
0.325001 0.973455 6.04045 86 42 36
0.391918 0.973508 6.04448 132 92 86
0.411023 0.975647 6.05615 182 140 135
0.443771 0.982058 6.05533 108 74 73
0.4741 0.980603 6.04381 161 136 136
0.732025 0.990054 6.12487 124 74 72
-2.50938 0.909714 5.54544 104 36 28
-2.29959 0.950621 5.74984 118 40 19
-2.23193 0.950121 5.77061 140 94 80
-1.90283 1.00292 6.07452 154 133 120
0.565344 0.985061 6.03775 56 21 21
0.646262 1.00893 6.15481 49 17 16
0.677549 1.0092 6.09825 49 16 14
0.708303 1.0181 6.13425 100 56 57
-2.38599 0.965403 5.75983 136 59 27
0.256104 1.02239 6.14848 130 96 87
-2.22449 0.964849 5.78383 135 81 70
-1.89143 1.01761 6.00595 156 135 122
0.342283 1.01471 6.11526 82 52 44
0.554026 1.01463 6.05434 64 30 30
0.640662 1.01742 6.02641 48 18 16
-2.43256 0.95541 5.67659 113 24 12
-2.31971 0.971701 5.71925 130 55 22
-2.30923 0.974844 5.75861 115 27 8
0.238218 1.04853 6.18953 149 118 108
0.676235 1.03632 6.09823 53 22 20
-2.21838 0.997958 5.8092 128 70 56
0.309721 1.03651 6.22401 68 30 23
-2.51069 0.959886 5.56701 121 68 56
0.550248 1.02985 6.05676 52 20 18
0.703747 1.04593 6.10532 109 71 72
-2.43069 0.985022 5.73717 132 58 18
-2.30374 0.98779 5.72652 122 16 12
0.247786 1.06869 6.14865 153 123 114
0.264661 1.06636 6.15271 130 98 88
0.430023 1.03618 6.01708 123 96 92
0.492446 1.03303 6.01951 108 80 82
-2.31827 0.989311 5.70994 120 26 8
0.377657 1.0442 6.07258 67 30 22
0.469944 1.03918 6.02897 102 78 76
-2.39594 0.993401 5.71064 140 64 26
0.690302 1.06693 6.0722 130 96 94
-2.43519 1.01068 5.74834 128 40 14
0.280091 1.07249 6.0911 138 106 99
-2.49628 0.97484 5.53961 105 40 30
-2.44615 1.01369 5.73098 117 16 8
-2.3341 1.001 5.70553 121 12 8
-2.38256 1.00245 5.69499 134 43 18
-2.34722 1.00358 5.69561 127 26 12
-2.4394 0.983104 5.60384 82 13 8
0.309769 1.09072 6.07479 99 68 58
0.514798 1.07161 6.04082 60 27 26
0.555945 1.09211 6.08234 74 40 36
-2.52176 1.00244 5.56346 102 26 13
-2.5648 1.03862 5.7284 124 74 64
-2.47605 1.03147 5.7452 96 11 9
0.317635 1.09682 6.03745 128 100 91
0.331381 1.11812 6.07603 136 106 100
0.658589 1.1081 6.03926 154 124 122
-2.53193 1.02399 5.56441 114 47 20
-2.55777 1.08632 5.77674 104 39 36
0.355983 1.12343 6.06875 142 112 107
0.36687 1.14396 6.13942 127 97 92
0.43057 1.13286 6.04258 104 74 68
-2.5323 1.05215 5.61595 107 23 14
-2.48841 1.0855 5.67805 88 17 16
0.430541 1.16237 6.12791 154 128 124
0.47372 1.15553 6.02909 162 136 134
-2.5205 1.0765 5.56767 112 24 10
-2.46999 1.09676 5.67625 86 10 12
-1.96676 1.1426 5.96338 160 140 126
-2.52142 1.09087 5.57446 118 15 12
-2.05969 1.19384 5.91586 150 128 117
-2.08551 1.18135 5.75775 136 98 84
-2.06447 1.20192 5.8397 149 122 111
0.393089 1.26609 6.18771 176 148 146
-2.07907 1.1856 5.69909 116 28 24
-2.05133 1.19592 5.72393 146 122 111
-2.35881 1.17948 5.58245 80 10 10
-2.05077 1.19871 5.68263 158 130 117
-2.17315 1.25674 5.64134 142 70 70
-2.25502 1.28917 5.58005 130 62 61
-2.28404 1.29276 5.55868 116 68 64
-2.26844 1.30274 5.55225 148 114 106
-2.3771 1.34714 5.41333 140 62 61
-2.45461 1.38645 5.424 143 76 72
0.375471 1.42641 5.63455 170 147 142
0.380411 1.60112 6.19905 178 155 150
0.380836 1.62105 6.20289 169 146 142
2.8524 -2.4107 5.86804 190 134 107
2.12265 -1.83349 5.80224 124 82 53
2.23067 -1.65706 5.59125 91 45 19
-0.370105 -1.87034 6.49848 32 13 2
2.03694 -1.78225 6.30106 118 102 82
1.99231 -1.75647 6.23773 114 100 78
2.0979 -1.67123 5.86314 114 98 83
-0.666891 -1.85976 6.65494 58 28 18
-0.632642 -1.84053 6.58963 53 23 10
2.03411 -1.72654 6.27654 124 98 69
2.08397 -1.67111 6.08675 84 71 57
-0.552947 -1.79878 6.59606 101 58 42
2.0396 -1.60224 5.89106 82 66 55
-0.420112 -1.77617 6.53313 76 40 26
-0.701886 -1.75609 6.6276 56 20 7
-0.772444 -1.74748 6.73252 56 33 19
-0.522616 -1.72167 6.5426 162 101 78
-0.804569 -1.73898 6.82437 98 85 50
2.19253 -1.4975 5.8437 118 80 61
-1.8426 -1.52353 6.09684 40 18 10
-0.731506 -1.66707 6.69495 40 13 6
-2.37264 -1.52669 6.24387 138 128 84
-0.731922 -1.65757 6.76579 82 46 26
-0.252305 -1.56073 6.58387 76 40 26
-1.64055 -1.52883 6.41561 152 136 88
-0.160795 -1.5687 6.66746 67 35 25
-0.294988 -1.54274 6.59379 86 51 41
-0.140996 -1.56256 6.72558 50 26 14
-1.74783 -1.39203 6.21085 170 114 94
-1.70634 -1.39067 6.25385 144 90 68
-0.305965 -1.4601 6.58686 35 8 2
-2.0823 -1.29873 6.05667 79 42 28
-1.91305 -1.30103 6.03212 126 74 58
-1.62145 -1.31658 6.22837 120 58 40
-0.0996868 -1.41452 6.69055 78 38 22
-0.378003 -1.41806 6.72255 50 15 8
-1.57491 -1.33275 6.33959 152 138 91
-1.5784 -1.28219 6.31697 148 130 86
-0.378301 -1.37331 6.69333 126 77 54
-0.023442 -1.34312 6.65198 47 19 6
-2.38329 -1.25107 6.23959 132 121 83
-0.201328 -1.36644 6.85505 98 51 38
-1.96116 -1.19661 6.03572 40 21 16
-0.239045 -1.34667 6.76423 88 38 28
2.70944 -1.98781 10.4188 146 144 96
-2.13715 -1.15157 6.15063 70 36 26
-1.49232 -1.2421 6.65292 146 134 86
-1.63656 -1.2134 6.59234 108 73 38
-1.68303 -1.1179 6.41534 82 42 22
-1.61586 -1.11609 6.51348 71 30 6
-1.93188 -1.05588 6.14042 38 16 10
-0.568502 -1.15132 6.6499 167 121 88
2.78754 -1.80684 10.4078 143 142 93
-0.572552 -1.13376 6.66982 160 113 80
2.87399 -1.80025 10.6068 142 140 92
-0.940931 -1.24529 7.45267 120 94 54
-1.53616 -1.04769 6.46608 92 57 24
-1.74358 -1.04224 6.40187 121 73 50
-1.66527 -1.0613 6.58203 102 60 36
2.72757 -1.09374 6.73196 112 91 65
-1.72629 -1.00921 6.33309 99 51 28
-1.71208 -1.03411 6.41914 96 49 26
-1.84871 -0.999259 6.35492 142 86 58
2.86417 -0.948565 6.00183 110 53 31
-1.97285 -0.987697 6.30836 64 24 14
-0.635461 -1.05483 6.78911 176 126 96
-1.06397 -1.18271 7.49653 96 69 32
2.70257 -1.02721 6.5958 100 79 64
-0.182706 -1.02554 6.67866 70 29 18
-2.34704 -0.974789 6.34675 132 120 84
-2.20281 -0.966649 6.30293 102 56 38
-1.40309 -1.01912 6.68973 126 84 60
-2.17761 -1.01054 6.74225 78 42 34
0.0814635 -1.02249 6.68258 146 104 77
-0.194083 -0.991989 6.66735 90 47 33
2.82531 -0.965494 6.57736 150 120 108
-0.596428 -0.972814 6.62268 148 100 70
-1.72621 -0.931417 6.37459 132 85 65
2.8076 -0.935672 6.553 166 136 124
-2.00547 -0.893969 6.33972 90 44 32
-1.65948 -0.891921 6.30821 122 76 56
2.28328 -0.961754 6.7103 134 102 84
-2.04981 -0.836118 6.14555 57 22 14
-1.92565 -0.872643 6.26191 131 76 53
-0.581521 -0.918265 6.57443 140 92 66
-1.66547 -0.882032 6.42324 128 84 64
-2.47049 -0.620859 4.63168 95 96 121
-0.641397 -0.871144 6.48979 142 97 68
-0.543799 -0.865078 6.48013 131 84 60
-1.10289 -0.847185 6.4229 85 53 20
-2.04775 -0.824529 6.35137 55 22 16
-0.224831 -0.870656 6.7249 92 50 38
-0.140662 -0.851082 6.70424 66 28 14
2.84346 -0.801136 6.30001 52 44 42
2.39628 -0.855957 6.75369 100 71 54
2.64179 -0.875903 6.99464 94 96 62
-1.57018 -0.781823 6.33967 119 76 57
-0.72405 -0.808301 6.3566 126 86 57
-0.231951 -0.83517 6.68552 68 26 14
-1.57795 -0.771641 6.40182 114 70 50
-1.10932 -0.72414 5.97747 118 78 44
-1.15053 -0.715756 5.91261 127 82 50
-1.99222 -0.725704 6.36033 100 50 33
-0.538021 -0.750913 6.39571 110 66 42
-0.259976 -0.782199 6.72705 86 46 32
-1.00614 -0.684017 5.90739 127 90 64
-0.584306 -0.744119 6.38969 122 76 48
2.26268 -0.777024 6.73969 57 20 10
-0.0574287 -0.78805 6.90523 156 132 117
-2.50478 -0.528388 4.7348 102 88 90
-2.07456 -0.719656 6.35288 62 24 15
-1.27969 -0.647046 5.98214 98 56 30
-2.1569 -0.66353 6.24242 85 41 26
-2.54531 -0.498187 4.80012 155 142 126
-2.46845 -0.491919 4.78485 22 20 56
-0.291704 -0.701623 6.75104 80 38 28
-0.709346 -0.62948 6.22193 110 63 46
-0.471882 -0.654837 6.3834 154 112 94
-2.53108 -0.487955 4.82357 76 36 42
-0.705228 -0.612722 6.24559 136 87 72
-2.42518 -0.461343 4.80779 97 16 26
-2.40749 -0.463548 4.80128 101 18 24
-2.51894 -0.454215 4.80822 98 16 20
-2.50737 -0.453298 4.81626 96 14 28
-2.46975 -0.454659 4.81609 84 14 30
-1.34269 -0.581553 6.13013 104 58 34
-0.069522 -0.685539 6.99874 147 128 102
-1.82952 -0.586836 6.15583 152 106 84
2.70465 -0.660442 6.922 98 80 60
-2.5993 -0.442015 4.76705 158 116 93
-0.667572 -0.57868 6.20889 126 74 58
-0.57313 -0.584584 6.33496 91 40 22
-0.239228 -0.618596 6.86971 132 91 75
3.00871 -0.546737 6.2214 78 54 51
-0.825364 -0.526221 6.09753 87 34 19
-0.787003 -0.521117 6.09701 88 38 25
-0.575063 -0.544062 6.33259 94 44 26
2.71494 -0.53355 6.25089 136 94 70
2.8316 -0.511839 6.20618 108 66 50
-2.12536 -0.516729 6.35036 144 95 72
-1.9314 -0.544658 6.32307 85 40 26
-0.824603 -0.5022 6.06054 94 40 22
-0.783073 -0.493745 6.06601 178 121 106
-2.67359 -0.373889 4.77668 166 139 120
2.69222 -0.586343 7.00933 118 94 74
2.87449 -0.500337 6.2166 49 22 14
-1.98143 -0.512484 6.47124 46 13 8
-0.58489 -0.505255 6.35161 83 32 16
-1.05454 -0.455637 6.0459 72 26 14
-0.241243 -0.499588 6.81922 160 124 108
-1.06036 -0.448035 5.9817 76 31 16
-0.235505 -0.49119 6.91536 159 122 105
2.19701 -0.508103 6.86559 124 96 71
-2.54294 -0.31486 4.77549 157 26 32
-0.387333 -0.463993 6.91591 170 128 112
2.17025 -0.457385 6.98733 119 98 77
-2.54737 -0.30178 4.74089 160 33 37
-0.226187 -0.454036 6.97393 162 126 108
-1.50078 -0.389376 6.05462 134 84 62
-2.51317 -0.297447 4.76389 161 32 33
-2.50341 -0.295841 4.78575 152 20 24
2.0637 -0.434503 6.97996 73 56 32
-1.25387 -0.367034 5.85681 182 122 100
-2.26316 -0.277122 4.80845 126 53 54
-2.25222 -0.27598 4.85045 125 44 47
-2.64158 -0.260669 4.74445 150 73 58
-0.0357686 -0.411239 7.15376 160 123 98
0.128894 -0.422612 7.40988 148 129 103
-1.10849 -0.337041 6.08262 140 88 73
2.2339 -0.397955 7.08717 102 66 42
-1.92326 -0.356462 6.47801 141 88 66
-1.29018 -0.330884 6.16652 168 111 90
-2.28397 -0.252524 4.82262 140 94 98
-1.30299 -0.315189 6.28533 162 108 90
2.1554 -0.368721 7.0477 114 90 72
-2.30445 -0.240304 4.80601 140 78 81
2.14694 -0.36002 7.21995 35 22 10
-1.9438 -0.327858 6.46504 146 99 76
-2.25943 -0.226353 4.83715 124 103 103
-1.94237 -0.318414 6.6002 156 106 79
-1.44212 -0.288061 6.12087 90 39 22
-2.24706 -0.208597 4.78606 72 52 49
0.175563 -0.340576 7.48536 146 126 98
-2.44165 -0.198092 4.73732 106 12 22
2.22624 -0.30622 7.09332 111 72 48
2.825 -0.275702 6.34809 128 104 90
-2.43987 -0.194595 4.69457 112 10 22
-2.43722 -0.197652 4.75825 105 12 22
-2.42814 -0.1957 4.77349 111 13 24
-2.288 -0.197901 4.8175 158 144 144
-2.24474 -0.190592 4.87407 118 34 32
2.41002 -0.30625 7.04262 80 47 23
-2.49626 -0.183067 4.75975 123 12 18
2.52701 -0.283504 6.95079 114 89 68
-2.3955 -0.18513 4.79208 114 11 20
2.12018 -0.275537 7.15167 54 31 11
-2.64919 -0.168871 4.83212 148 83 72
-2.48538 -0.167852 4.7129 114 18 22
-1.42418 -0.232527 6.2632 126 81 64
2.28026 -0.256664 7.02161 128 90 69
-2.30592 -0.171273 4.81065 136 72 74
-2.02988 -0.194434 5.5515 126 84 40
-0.974759 -0.274135 7.11931 94 42 26
-2.58719 -0.154432 4.72836 155 90 79
-2.56663 -0.157959 4.73711 158 64 62
-2.47787 -0.155679 4.68891 98 20 28
-2.26742 -0.166389 4.87307 110 27 26
-1.64094 -0.233396 6.58334 168 120 96
-2.34248 -0.152295 4.73983 80 14 29
-2.26796 -0.159116 4.83863 115 28 28
2.51514 -0.2256 6.61067 124 101 92
-2.46466 -0.136547 4.64898 90 20 34
-1.8254 -0.206842 6.59585 192 146 122
3.2076 -0.213098 6.58754 132 104 79
3.28729 -0.210352 6.65319 136 110 86
-1.62473 -0.185021 6.59135 147 101 81
3.28539 -0.195381 6.46725 166 138 122
-2.22176 -0.147611 5.36933 146 120 80
-0.788733 -0.195631 6.89912 174 125 100
-2.10782 -0.144006 5.41711 161 141 111
-0.140788 -0.184763 7.06948 146 102 82
2.93313 -0.167388 6.38761 136 100 78
-2.15039 -0.128324 5.51665 137 103 48
2.87723 -0.149755 6.47276 56 40 30
-0.531077 -0.152499 6.89473 182 132 110
-0.14155 -0.155952 6.98581 143 98 80
-1.88613 -0.105962 5.51191 156 30 36
-1.83637 -0.110391 5.51505 150 31 35
-2.46541 -0.0879604 4.65178 94 20 38
-0.137724 -0.125975 7.02199 139 95 75
3.37764 -0.129999 6.67877 136 116 96
2.83551 -0.118752 6.65724 122 88 64
1.99495 -0.118919 7.25128 120 88 58
-0.110836 -0.0821356 7.04793 134 87 69
1.99481 -0.100055 7.21257 142 112 86
0.315175 -0.0680008 7.50321 148 124 97
2.01158 -0.0816906 7.57665 134 120 92
3.08135 -0.0546147 6.60147 134 114 98
3.58847 -0.0748163 6.8343 110 88 70
3.14056 -0.0633239 6.48775 182 162 148
-2.68546 -0.0394534 4.91242 162 125 105
2.17699 -0.0434087 6.78797 100 60 34
3.01211 -0.0263952 6.57238 184 160 149
-2.67919 -0.0165161 4.94424 146 70 60
0.347542 -0.0377108 7.61845 145 124 97
2.71491 -0.0194086 6.69664 123 94 78
-2.67201 -0.00436907 4.96124 141 44 40
-1.71519 0.00601533 6.70393 148 102 84
-2.41444 0.0369892 5.00104 108 7 10
1.99017 0.0408962 7.19536 119 84 65
-2.80293 0.0397736 4.99168 164 140 121
-2.7996 0.0368589 5.01704 154 104 84
-2.40475 0.0449992 4.99778 83 2 3
-0.531422 0.0530383 6.88631 166 110 84
2.18096 0.0629377 6.81968 153 112 98
-2.62082 0.0641371 5.01578 96 2 2
-2.38083 0.057308 4.98476 63 1 1
-1.79798 0.0797276 6.57823 172 124 105
0.584609 0.0599137 5.8152 121 84 64
-1.95336 0.0754107 5.68083 161 122 96
2.0119 0.0829872 7.42428 118 100 76
2.5668 0.072472 6.50391 124 88 70
-2.76931 0.0690544 4.95412 144 66 46
-2.62076 0.0707821 4.93301 108 9 7
2.0835 0.11066 6.96492 153 109 92
-0.536355 0.115262 6.85777 162 106 82
-2.78646 0.104323 4.99164 154 106 55
2.72924 0.115525 6.66343 112 74 56
2.4669 0.132372 6.51211 153 102 78
2.15251 0.163288 7.07525 152 74 52
-2.2339 0.138786 5.341 106 7 10
-0.534256 0.15285 6.90056 164 110 86
2.80613 0.158486 6.32312 100 57 38
-2.36649 0.136415 5.00137 93 8 10
-2.35071 0.137292 5.02311 110 11 12
0.65237 0.156363 5.7947 94 48 31
-0.0323588 0.247457 7.03286 116 75 56
2.00677 0.21028 7.12727 94 70 52
2.06188 0.205296 6.96938 102 18 12
2.02373 0.216963 6.90945 88 35 28
2.14947 0.234863 6.82951 140 92 88
-1.80236 0.243056 6.65224 152 104 88
2.20605 0.252007 6.72444 110 82 78
2.46537 0.231989 6.51314 122 76 60
2.91657 0.233415 6.36331 151 114 101
-1.59115 0.257143 6.73075 138 86 68
-1.79332 0.259837 6.67138 144 95 76
0.0353108 0.263052 7.1546 108 60 38
0.367307 0.239317 5.62353 35 7 1
0.134348 0.291205 7.22397 126 79 51
0.149551 0.296817 7.18778 118 74 44
0.17488 0.295371 7.21217 116 72 43
0.0461112 0.312309 7.20191 102 58 34
0.0971486 0.305784 7.17868 118 72 44
2.41185 0.291365 6.59636 143 112 100
-0.954643 0.314795 7.03811 98 48 29
2.48013 0.296866 6.5153 131 90 72
0.0460979 0.334374 7.20483 100 58 32
-2.62286 0.233625 4.89456 141 50 22
-1.12397 0.335483 7.02128 108 60 42
2.928 0.306686 6.48573 141 102 86
-2.34688 0.245278 5.06015 78 70 79
0.0183113 0.3467 7.09197 94 52 28
-2.77339 0.24112 4.84012 173 120 54
0.397897 0.290879 5.66647 58 10 6
-2.52491 0.2536 4.89675 106 4 6
-2.51257 0.254631 4.89754 118 10 12
3.30405 0.341581 6.5112 179 146 130
-1.24544 0.375777 6.81978 106 58 34
2.24236 0.350152 6.74016 104 76 76
-2.60613 0.27668 4.93811 100 6 4
-1.09896 0.372498 7.05059 88 38 24
-2.58352 0.278955 4.86445 102 12 1
-0.810133 0.387223 7.0162 144 88 62
-0.615449 0.396858 6.92902 158 105 84
2.52237 0.378878 6.97111 194 170 163
-1.01444 0.402103 7.1578 78 30 16
-2.60518 0.30124 4.90417 140 62 23
-2.45484 0.314212 5.02532 82 72 74
-2.74936 0.286724 4.82191 157 104 36
-0.663832 0.442566 7.12045 158 103 73
-0.544045 0.426838 7.01211 134 80 49
2.6044 0.420918 7.07441 226 206 200
-2.28149 0.329842 5.22321 68 60 72
2.11995 0.434762 7.009 26 12 1
-2.77923 0.305412 4.89933 144 92 30
-2.03099 0.410878 6.65881 192 146 124
0.0804981 0.4495 7.03143 99 62 40
0.105008 0.450479 7.08371 106 68 47
0.134758 0.445026 7.12036 122 84 64
-0.0025648 0.461239 7.04758 110 76 51
2.70994 0.432354 6.53267 125 115 106
-0.625905 0.470282 7.00156 124 72 40
0.000342191 0.498047 7.04432 103 70 44
-2.37875 0.35555 5.08283 93 89 103
-2.44588 0.367977 5.03398 110 104 111
2.06976 0.488325 7.00663 90 54 34
-1.31979 0.504481 6.71526 104 56 36
-0.891291 0.517261 6.97324 116 71 50
2.81706 0.482916 6.44792 130 119 112
-1.09742 0.530547 6.87037 88 49 38
-2.80603 0.422876 5.21392 142 85 54
-0.633463 0.547628 6.9239 144 90 60
-0.555726 0.559868 6.89751 136 85 60
2.78475 0.523638 6.46073 132 72 56
-2.77528 0.408962 4.93275 161 124 86
-2.08534 0.551058 6.73918 183 132 110
-2.42454 0.417917 5.05138 94 86 88
-2.34444 0.441528 5.21493 88 72 72
-2.2355 0.446579 5.36055 108 31 34
-2.37282 0.448297 5.22348 102 88 90
0.766172 0.472582 5.53399 82 68 52
-2.37888 0.450822 5.19036 104 91 95
-1.36221 0.594945 6.84741 98 49 32
-0.0175806 0.518865 6.14039 134 108 95
-1.38785 0.576076 6.66537 82 34 18
2.67176 0.569624 6.48814 140 70 56
-2.10531 0.59134 6.71408 105 60 28
0.0766071 0.534325 6.08493 100 78 66
2.78506 0.562414 6.4601 134 61 42
-0.98353 0.610049 6.87837 158 128 120
0.532617 0.497815 5.56838 126 16 13
-2.40039 0.471932 5.19862 86 59 64
0.254381 0.535891 5.80742 135 106 97
2.76496 0.592367 6.52158 127 82 58
0.239006 0.544557 5.76522 144 84 78
-2.4122 0.485315 5.14646 111 26 26
-2.25698 0.512601 5.34189 101 52 53
-1.10163 0.647088 6.78898 120 89 78
2.77352 0.627811 6.49735 100 66 60
3.26233 0.656898 6.74044 142 114 103
0.0475902 0.5959 6.08501 107 83 72
0.0903762 0.595529 6.07164 138 118 103
0.67333 0.554024 5.57798 66 48 36
-2.04267 0.657727 6.67747 190 138 111
0.745752 0.569181 5.63246 86 64 54
-2.39798 0.547365 5.24686 80 55 57
-2.38178 0.538339 5.28384 50 34 46
-0.00342147 0.618539 6.07436 126 107 98
0.0140507 0.603921 6.06419 132 109 102
0.605299 0.582079 5.69385 126 62 57
0.714086 0.575584 5.6383 104 81 66
-1.35321 0.694105 6.82522 96 48 31
-2.40616 0.565324 5.22898 97 45 51
-1.31674 0.703705 6.73551 101 56 38
0.788463 0.599593 5.71225 128 110 102
-2.09918 0.716905 6.74271 128 81 56
-2.47459 0.557525 5.11977 124 18 22
-2.4218 0.581211 5.26607 95 45 51
-2.47004 0.57026 5.11823 108 39 42
-2.50419 0.582393 5.12605 81 44 52
0.564488 0.632142 5.58739 142 125 121
-2.41015 0.584936 5.20087 118 22 26
2.79103 0.731721 6.5625 155 130 119
0.233303 0.694547 6.14352 157 90 74
0.396924 0.638795 5.61888 149 132 123
-2.2639 0.612679 5.41327 112 31 20
-2.55046 0.594259 5.10251 100 40 42
-2.3964 0.602025 5.20094 112 24 28
-2.50295 0.586471 5.09346 68 47 56
-2.25959 0.68378 5.62851 154 114 89
0.72733 0.686193 5.7856 142 54 50
3.19943 0.798471 6.7619 146 118 106
-2.47719 0.610434 5.08625 40 21 34
0.819812 0.685057 5.67246 113 94 88
-2.63065 0.681725 5.20296 128 25 26
-2.54278 0.664671 5.12718 90 41 46
-2.53012 0.659149 5.12698 78 37 41
-2.51362 0.65295 5.13067 84 45 54
-2.50099 0.67767 5.18285 84 18 18
-2.54456 0.661744 5.09681 105 30 34
-2.44648 0.722969 5.43879 138 74 64
0.447839 0.755277 5.74856 135 66 60
-2.50876 0.704156 5.22789 70 3 4
-2.46386 0.745501 5.47675 163 134 120
0.807739 0.75949 5.68784 132 59 53
-2.47112 0.734257 5.37626 136 72 55
-1.84834 0.858208 6.30582 152 128 116
-2.48549 0.73945 5.28111 134 56 28
-2.25233 0.787317 5.68785 123 80 64
-1.8512 0.878613 6.21658 154 131 120
-2.53663 0.754194 5.24016 127 50 17
-2.2454 0.808288 5.61674 111 36 20
-2.44899 0.836726 5.59372 88 18 6
-2.26624 0.872922 5.76505 154 119 109
0.878219 0.869326 5.83937 110 42 34
-2.39347 0.845666 5.56247 124 22 8
-2.37503 0.84945 5.59814 143 40 16
-2.28579 0.877722 5.71832 118 24 18
-2.27538 0.894521 5.74451 142 81 71
1.03334 0.913507 5.90306 150 86 76
0.694864 0.954014 6.1041 152 30 29
0.902088 0.942577 5.95702 152 88 82
0.521042 0.962122 5.99856 122 32 32
0.497412 0.977285 6.06042 134 72 74
0.257101 0.98761 6.18526 123 90 81
-2.51722 0.900829 5.47027 130 51 25
-2.5097 0.904206 5.42869 116 28 13
-2.69413 0.911364 5.40576 161 115 78
-2.52357 0.912224 5.4258 138 58 34
-2.58055 0.941178 5.4828 135 45 22
-2.41127 0.957428 5.67996 124 39 20
0.357599 1.01994 6.04373 82 50 42
0.511411 1.03381 6.04505 103 75 78
0.406135 1.02982 6.00945 132 104 99
0.45078 1.03815 6.02345 108 80 78
-2.56028 0.931975 5.35575 148 46 24
-2.60084 0.947873 5.40716 148 42 22
-2.6566 0.961756 5.44598 153 40 26
-2.61313 0.949485 5.3934 160 50 36
-2.36356 0.998408 5.69847 136 41 20
-2.70709 0.971036 5.4823 146 33 25
-2.38688 1.00816 5.67248 119 16 4
-2.70828 0.990971 5.47078 160 65 54
-2.4343 1.03425 5.68255 94 8 8
-2.77827 1.04114 5.57134 146 86 73
-2.65805 1.03852 5.46187 166 58 40
-2.60099 1.04505 5.50039 152 50 20
-2.5867 1.04692 5.50623 160 74 39
-2.56413 1.04022 5.50203 150 69 32
-2.60117 1.04148 5.46444 170 81 36
-2.51322 1.06028 5.54927 123 41 22
-2.5413 1.06726 5.52811 142 78 34
-2.65545 1.07593 5.48802 164 72 32
-2.63181 1.08726 5.4829 180 110 45
-2.58752 1.10286 5.53288 164 101 42
-2.55149 1.10253 5.51192 147 58 30
-2.54884 1.10145 5.47786 130 23 8
-2.03343 1.18844 5.90748 152 129 119
-2.61402 1.11227 5.505 140 38 13
-2.56863 1.10571 5.47866 142 38 19
-2.06061 1.19228 5.70682 140 111 100
-2.80288 1.22907 5.72114 166 87 81
-2.79013 1.24707 5.71296 172 96 91
-2.15382 1.24921 5.65676 150 86 84
-2.26087 1.26674 5.54854 107 16 20
-2.25721 1.28121 5.53736 122 66 64
-2.5549 1.36071 5.49891 164 58 58
-2.4672 1.36319 5.40167 132 22 25
-0.396408 -1.79375 6.53766 49 21 10
-0.513439 -1.73653 6.535 160 102 82
2.63933 -1.4174 5.49256 113 88 82
2.72482 -1.4173 5.48662 126 105 99
-0.116078 -1.71199 6.65864 33 14 4
-0.76652 -1.70116 6.76228 42 17 8
-2.0918 -1.49858 5.9941 114 73 46
2.70751 -1.34564 5.49143 126 104 98
-2.17234 -1.36929 6.0682 92 54 36
0.772139 -2.27148 10.3825 143 142 94
-0.00703528 -1.43803 6.87637 84 56 30
-0.417011 -1.41686 6.80254 74 24 8
-1.85441 -1.23569 6.16776 200 135 115
-2.19865 -1.19332 6.10633 69 34 20
1.83343 -2.03778 10.8424 120 118 76
-2.11491 -1.13829 6.13747 68 34 23
2.51598 -1.26033 6.80613 99 70 42
-1.71601 -1.15728 6.39328 108 62 48
-2.21663 -1.09749 6.13526 77 44 30
-1.92648 -1.07772 6.25046 38 10 6
-1.93434 -1.04748 6.27627 38 10 4
-0.146592 -1.06368 6.71504 96 48 32
-2.15893 -0.981264 6.26512 58 22 12
-2.04388 -0.983492 6.34647 52 19 13
2.81568 -0.962138 6.21281 142 45 22
-1.1275 -1.14134 7.41697 141 127 92
-0.623703 -1.00772 6.63812 163 114 83
-1.72181 -0.938019 6.34841 130 82 62
-1.70132 -0.932858 6.32492 130 82 61
2.80531 -0.897713 6.07707 157 62 36
-1.94292 -0.900108 6.37561 126 71 46
-2.35528 -0.927522 6.38545 133 112 90
-0.470873 -0.939737 6.5416 195 150 126
-2.06489 -0.877898 6.25829 37 10 4
-0.81305 -0.879736 6.50774 138 94 64
0.0762251 -0.902328 6.83623 120 102 76
2.35937 -0.851071 6.70273 76 41 26
-0.134757 -0.833278 6.70754 58 24 14
-0.858672 -0.756036 6.18439 146 102 80
-1.08832 -0.720859 5.99168 118 80 47
-0.164209 -0.815598 6.74625 34 10 4
-0.5498 -0.771472 6.38817 119 75 48
-1.25517 -0.685908 5.95916 95 50 26
-0.568202 -0.689932 6.19754 136 88 63
-2.1638 -0.717356 6.4975 88 44 28
-2.01423 -0.633921 6.22338 60 24 16
-2.54419 -0.498724 4.82452 130 118 112
3.12557 -0.620808 6.16414 158 122 100
-2.44979 -0.457173 4.81139 86 14 24
-1.62477 -0.584033 6.13561 142 96 76
-2.60904 -0.455142 4.81252 157 121 96
-2.48706 -0.451146 4.81459 88 14 24
-0.121915 -0.672741 6.95951 114 76 53
-0.179639 -0.625567 6.93732 130 91 73
-0.767802 -0.520618 6.08437 114 61 48
-1.58356 -0.481402 6.13449 94 50 29
2.88529 -0.467084 6.32861 170 140 123
3.05349 -0.468191 6.30192 156 105 80
-1.3168 -0.440724 6.00402 178 117 96
-1.03506 -0.437997 6.0468 74 27 12
2.80025 -0.512595 7.44916 97 83 58
2.15652 -0.53169 7.53685 130 114 86
-1.02672 -0.372612 6.07239 98 52 36
-2.25268 -0.282961 4.80792 120 31 34
-2.24463 -0.279817 4.86597 124 16 16
-1.04369 -0.360155 6.11444 96 52 38
-1.89936 -0.385498 6.5014 88 39 24
-0.531432 -0.376341 6.85483 174 126 106
-2.61379 -0.249987 4.77405 154 62 60
-2.59975 -0.245835 4.79035 139 22 22
3.10113 -0.344299 6.48957 46 29 19
-2.59465 -0.222149 4.78608 145 46 45
-2.29101 -0.21681 4.80944 158 144 144
-2.64282 -0.200961 4.8042 182 152 145
-1.70928 -0.283829 6.39299 154 106 86
-1.39224 -0.269369 6.19836 102 54 36
3.18129 -0.283426 6.55539 74 54 37
3.26107 -0.275643 6.50873 140 110 85
-2.66893 -0.194002 4.82376 153 107 96
3.09915 -0.276466 6.54665 76 48 36
2.59473 -0.252936 6.57113 70 48 36
-2.26975 -0.174065 4.8457 150 123 124
2.52216 -0.251892 6.62921 114 96 88
-2.66708 -0.138454 4.84122 150 90 78
-0.144004 -0.215551 7.04478 149 104 88
2.00328 -0.201104 7.21557 109 76 44
2.57488 -0.197114 6.63926 16 10 9
2.26384 -0.199505 7.11252 146 116 100
2.51543 -0.184462 6.60754 95 78 70
2.91224 -0.16037 6.4899 52 30 18
-2.34696 -0.0776846 4.75301 72 14 28
-2.48294 -0.067679 4.68361 120 18 23
3.01426 -0.0809888 6.47427 148 124 110
2.7621 -0.0724808 6.56193 149 116 96
-0.976215 -0.0777512 7.00224 107 54 34
2.98166 -0.0136745 6.52733 166 138 126
2.15146 -0.0181299 6.83186 162 132 122
-2.69783 -0.00806052 4.99112 170 126 108
-2.75664 0.0271101 5.01004 128 60 46
-2.39937 0.026373 5.01092 104 8 10
-2.34766 0.0587257 4.93408 74 4 6
-0.538107 0.0932706 6.9198 159 103 80
2.05502 0.122244 6.94022 144 102 84
-0.974757 0.182463 7.07434 108 53 38
-2.35149 0.130615 4.99589 96 5 6
0.0348242 0.165937 6.95903 147 96 76
0.607143 0.162988 5.75037 106 52 34
2.45694 0.214246 6.52427 146 110 93
-1.59476 0.216778 6.68749 138 90 73
-2.35617 0.177285 5.02227 102 41 44
-2.3831 0.198574 4.98376 107 28 26
2.03469 0.314376 7.71323 111 94 76
2.06295 0.315755 7.65037 88 66 42
2.51807 0.281905 6.73067 134 100 90
2.1949 0.287795 6.68966 100 72 70
-2.40924 0.241331 4.99651 88 65 68
2.04376 0.325188 6.95191 85 79 64
3.3673 0.298622 6.52091 174 148 142
0.429434 0.270677 5.64822 48 16 12
3.14434 0.320304 6.45813 172 146 138
-2.34724 0.263639 5.0633 118 110 118
3.37686 0.340937 6.52386 140 70 54
3.48966 0.353691 6.59913 48 24 18
-2.36284 0.279352 5.07864 106 100 107
-2.41319 0.280644 4.97019 106 96 102
-1.83511 0.387194 6.69544 148 100 86
-1.40949 0.419952 6.82292 137 87 67
2.21716 0.403062 6.78266 130 115 105
-0.568407 0.430765 6.9858 122 70 46
1.97917 0.493461 7.79244 140 123 107
-0.700873 0.477123 7.32498 113 61 31
-0.916014 0.457072 6.96924 112 62 38
-0.0213165 0.471515 6.99993 115 82 58
0.0389012 0.453667 6.63775 128 97 80
-2.7427 0.344715 4.83531 158 106 44
-0.566023 0.482515 6.94157 148 94 66
3.02686 0.453519 6.44384 161 123 116
-2.80476 0.356813 4.88738 144 104 58
-0.653374 0.500744 6.90027 182 130 102
2.55615 0.485705 6.63106 120 70 72
-1.09811 0.520033 6.94697 78 38 28
-1.05362 0.505441 6.85913 98 62 48
2.67043 0.48732 6.48318 104 92 82
-2.17447 0.460315 5.37816 126 20 23
-2.40083 0.480999 5.11911 105 47 48
-2.16389 0.64845 6.78171 144 97 72
0.610774 0.574246 5.67986 116 27 24
-2.38257 0.559152 5.25094 25 15 32
-2.36825 0.599367 5.2715 82 40 46
-2.39177 0.603593 5.27704 84 45 52
-2.53931 0.594212 5.10628 82 44 48
3.25827 0.79723 6.84451 136 104 92
-2.2577 0.642674 5.46256 146 82 41
2.48365 0.853807 7.20602 181 158 152
-2.48264 0.625668 5.1669 103 41 40
2.57202 0.89705 7.27498 178 157 150
-2.4846 0.668777 5.20673 103 11 9
-2.08477 0.833617 6.46426 152 130 116
-2.61166 0.755688 5.16557 132 32 22
0.506092 0.930396 6.08352 144 42 42
0.890397 0.968887 6.07136 141 58 56
0.240657 1.00632 6.17274 140 109 102
0.376374 1.02301 6.04967 100 67 60
0.530613 1.02675 6.04682 76 42 42
0.397556 1.04173 6.06314 90 56 50
0.60876 1.1123 6.01118 136 110 112
0.459333 1.12918 6.05806 77 44 40
-2.60292 1.11521 5.51029 149 50 22
2.82139 -2.49379 5.95703 138 122 76
3.02411 -2.44457 5.93992 120 90 52
2.85985 -2.42459 5.93012 138 86 54
2.80178 -2.40206 5.87402 106 60 26
2.95895 -2.38206 5.82401 126 92 61
3.06896 -2.47506 6.07985 128 86 56
3.00249 -2.38788 5.90905 109 76 40
2.70955 -2.37783 5.91087 140 124 82
2.82234 -2.45662 6.10288 142 128 80
2.88749 -2.43035 6.09007 116 48 22
