ply
format ascii 1.0
element vertex 1252
property float x
property float y
property float z
property uchar red
property uchar green
property uchar blue
end_header
-1.49083 -0.847743 6.72736 182 177 160
-4.74604 -1.24327 9.31339 186 186 192
-0.194156 -0.82011 6.8154 218 217 198
-1.53663 -0.812341 6.66293 186 181 162
-1.5395 -0.794935 6.62378 184 178 164
-1.53963 -0.779425 6.5667 186 182 166
-4.64407 -1.1754 9.29952 187 188 192
-0.465274 -0.792571 6.81878 202 200 179
0.095459 -0.735385 6.52967 125 112 110
-1.22949 -0.773681 6.84547 152 146 117
-1.32615 -0.765938 6.83282 148 142 112
-0.00597577 -0.652639 6.36641 178 150 136
-1.56148 -0.645244 6.46475 198 192 188
0.197362 -0.616977 6.56603 182 180 164
-1.48971 -0.604585 6.40713 165 162 145
0.154358 -0.593607 6.56335 152 142 127
-0.368178 -0.505296 5.87718 170 164 140
0.19535 -0.571031 6.67306 162 156 154
-0.011534 -0.508903 6.1983 120 94 66
-4.48314 -0.852926 9.47363 190 192 190
-4.52559 -0.822259 9.44029 190 196 200
-4.14255 -0.818374 9.46132 196 200 204
-3.98798 -0.786664 9.19163 194 198 202
-3.17059 -0.779997 9.22956 180 182 183
-3.15962 -0.784424 9.27058 182 184 183
-3.11509 -0.779882 9.23072 182 186 186
-3.08943 -0.776803 9.20374 180 182 183
-3.06896 -0.777988 9.21546 184 185 187
-2.73777 -0.673054 8.27739 186 186 191
0.198616 -0.471142 6.67696 172 170 174
-0.460592 -0.416195 5.904 136 113 76
-0.445897 -0.41643 5.87475 144 126 88
-1.19771 -0.387479 6.04574 193 168 112
-1.23606 -0.350359 6.03569 194 176 133
-1.1914 -0.342564 6.04162 200 176 132
-1.28212 -0.282667 6.11412 88 89 82
-0.914476 -0.267046 5.9103 178 156 117
0.0923348 -0.320583 6.99657 102 94 66
1.13779 -0.393605 8.43841 176 171 172
-0.008773 -0.274037 6.66304 124 104 60
0.120006 -0.284957 6.88155 132 112 70
-1.39259 -0.258651 6.48529 100 101 88
0.189467 -0.230809 6.92791 138 126 102
-0.604961 -0.179502 5.95852 112 100 67
-0.497173 -0.182072 6.04676 130 122 90
0.106111 -0.235985 7.36525 114 104 71
-0.790259 -0.167338 5.96673 150 106 70
-0.0418456 -0.184417 6.56935 94 86 64
-1.12973 -0.161424 6.07399 174 169 133
-1.32657 -0.165992 6.37824 154 152 124
-0.969463 -0.139363 6.00819 160 127 78
-1.10649 -0.138893 6.08849 130 150 142
-0.986916 -0.136026 6.06537 162 134 88
-0.452908 -0.124108 6.05121 132 104 56
0.134042 -0.119924 6.59758 147 132 106
-0.380068 -0.104577 6.13196 106 100 74
-0.876684 -0.101072 6.07161 161 128 78
-0.966202 -0.0954929 6.03778 162 155 116
-0.847855 -0.0944391 6.0083 128 88 50
0.320156 -0.107177 7.20787 136 118 86
-0.228706 -0.0748813 6.4133 128 104 40
-0.809125 -0.0649586 5.99344 118 124 106
0.397308 -0.079854 6.77029 148 121 100
-1.69469 -0.0932475 7.10749 126 116 92
0.35789 -0.0581725 6.73925 143 126 92
-1.70881 -0.0655968 7.08409 108 94 76
0.139974 -0.0597704 7.20114 126 108 72
-1.69499 -0.0597658 6.95178 116 108 90
-0.711236 -0.027723 6.04309 32 21 12
0.0990158 -0.0198273 7.00391 111 101 78
-1.81737 -0.0182916 6.69374 134 110 84
-1.06097 0.0152362 6.20072 141 128 76
-1.81138 0.000145417 6.65885 155 146 122
-1.04015 0.0168162 6.20916 132 120 68
-1.18786 0.0122835 6.41673 88 84 59
-1.8407 0.00140116 6.74872 123 116 108
0.175984 0.0161833 6.8891 130 108 76
-1.51637 0.0204085 6.98144 113 110 92
0.349391 0.0544474 6.67247 148 134 106
-1.78396 0.0486996 6.56483 156 142 122
-1.36686 0.0532029 6.78387 138 139 122
-0.335137 0.0692652 6.63826 66 46 11
-1.75278 0.069018 6.66748 146 144 124
-1.48212 0.0674422 6.73612 168 166 130
-0.985709 0.0678726 6.27434 130 119 70
-0.66637 0.0714732 6.26541 103 94 54
-0.927228 0.0806456 6.27406 124 113 64
-1.74675 0.0842812 6.5795 147 143 124
-1.24738 0.0871272 6.75518 160 161 140
-0.619537 0.0864403 6.22597 139 124 62
0.220549 0.0996622 6.60821 145 128 100
-0.43166 0.105073 6.35698 88 70 29
-0.376654 0.1239 6.78041 60 46 20
-1.29812 0.12629 6.80699 77 77 72
-1.56923 0.128332 6.60914 91 93 90
-0.183379 0.136475 6.65195 98 84 50
-0.862958 0.126308 6.4098 89 74 41
-0.838111 0.130029 6.36561 70 54 22
-0.402835 0.142644 6.44611 69 54 24
0.156145 0.156476 6.38005 126 110 77
-0.448096 0.16955 6.52984 69 52 18
0.156303 0.169299 6.42913 146 130 96
-0.516762 0.185235 6.44234 75 61 25
0.151661 0.182374 6.18229 152 118 91
-1.24399 0.21887 6.4856 103 102 90
-0.628049 0.215087 6.46133 68 63 34
-0.778166 0.216791 6.36805 131 126 96
-0.763171 0.224096 6.48518 90 92 68
-0.268071 0.220639 6.48315 109 90 42
-0.318864 0.275778 6.07331 114 111 76
-0.287821 0.288525 6.16548 144 130 80
-0.601462 0.292526 6.24122 154 142 96
-0.796352 0.344938 6.2103 136 130 96
-0.196115 0.350742 6.18864 117 108 102
-1.28318 0.626059 5.80672 200 196 196
-0.483238 0.812173 5.24585 180 172 174
-0.531762 0.316295 6.26809 157 138 88
-0.921988 1.05825 5.86815 177 172 172
-0.714186 -0.288641 5.87538 126 86 54
-1.09936 -0.266259 5.99843 142 156 147
-0.729259 -1.99169 7.51475 160 156 154
-0.339906 -0.456041 5.91614 65 48 32
0.990486 -0.494103 7.08459 160 158 162
-0.490076 -0.373638 5.87984 128 96 59
-1.54019 -0.723375 6.45328 180 176 160
-1.25449 -0.748143 6.80384 149 142 112
-0.992804 -0.640641 6.40426 160 154 127
2.14848 -0.474305 6.83474 149 148 150
1.78546 -0.485448 6.95112 155 154 158
2.48911 -0.465914 6.93508 148 148 152
-0.761367 -0.329639 5.96687 156 124 87
-1.58164 -0.247042 6.70606 150 126 112
-1.4632 -0.235747 6.64142 142 131 88
-1.60212 -0.235794 6.82102 130 98 76
-1.14536 -0.179258 6.06249 192 178 128
0.319626 -0.184765 6.95438 119 106 74
-0.860192 -0.0974713 6.01322 133 94 50
-0.847316 -0.0479099 6.05206 119 118 90
0.27488 0.0867088 6.6722 116 98 74
-1.53839 0.137649 6.73915 116 114 98
-1.48538 0.16546 6.64983 96 92 86
-1.13924 0.174885 6.61777 104 104 80
-0.438157 0.288391 6.48438 146 133 82
-4.94199 -2.08087 9.68345 186 186 191
-0.626426 -0.954437 6.68566 190 186 172
-0.321048 -0.936327 6.72971 204 200 190
-1.12001 -0.927264 6.7552 174 168 141
-0.38663 -0.932592 6.86763 222 222 208
-0.376011 -0.929457 6.87983 217 217 204
-0.510779 -0.919902 6.85384 229 229 212
-1.3255 -0.924482 6.85845 176 170 152
0.0637592 -0.820061 6.54347 166 162 160
-4.93437 -1.33644 9.61806 184 186 190
0.0599852 -0.836828 6.71553 195 190 182
-0.983971 -0.794247 6.9458 163 158 132
0.094102 -0.681087 6.64776 142 133 134
-1.48412 -0.632786 6.25333 214 208 176
0.0951125 -0.665739 6.60853 144 135 133
0.264094 -0.619666 6.34465 171 168 158
0.391125 -0.600109 6.46566 167 162 160
0.0245838 -0.575775 6.25941 124 108 70
0.155274 -0.546088 6.49611 150 142 132
2.89784 -0.621375 7.82916 150 148 150
-4.66059 -0.844358 9.62659 194 198 203
-3.83134 -0.754064 8.91131 195 198 202
-3.13963 -0.766621 9.07936 182 185 186
0.980612 -0.556523 7.60716 163 163 164
1.04186 -0.476749 6.9244 164 162 164
1.44664 -0.553437 7.66061 160 158 161
2.46676 -0.668036 8.77137 160 158 161
2.42806 -0.647464 8.57062 160 159 162
2.85677 -0.615371 8.28456 150 150 152
1.23842 -0.666082 8.71019 165 163 167
2.76542 -0.583525 7.9973 149 148 152
3.10836 -0.650458 8.66477 150 150 153
2.96703 -0.599667 8.16567 148 148 150
2.99338 -0.595522 8.12695 146 146 148
3.38587 -0.676979 8.9268 146 144 146
3.15683 -0.612828 8.30441 148 147 148
3.26705 -0.631252 8.51556 152 152 154
3.13068 -0.596257 8.14199 148 148 150
-0.0142272 -0.4126 6.34128 124 107 76
0.425964 -0.443812 7.0407 178 175 170
-0.187815 -0.359155 6.11296 34 20 14
-0.915143 -0.339064 5.89481 186 158 116
-1.45645 -0.368526 6.38823 162 160 154
-1.27658 -0.346566 6.16433 198 180 138
0.0358407 -0.367437 6.68946 166 158 152
-1.35515 -0.347835 6.28127 196 195 160
-0.947295 -0.300196 5.87975 184 150 108
-1.23313 -0.290607 6.07012 102 94 78
0.159262 -0.362649 7.42477 49 43 45
0.192693 -0.361391 7.47402 101 92 74
-1.34796 -0.290731 6.3921 129 131 115
-1.06813 -0.255202 5.97724 179 156 114
-1.35462 -0.267934 6.39693 116 116 104
-1.281 -0.243652 6.17548 92 92 78
-0.158174 -0.200939 6.2822 116 92 39
0.0314715 -0.212141 6.95462 47 51 47
0.0723222 -0.254811 7.54667 83 74 48
0.184806 -0.234524 7.23427 142 128 106
-0.780803 -0.170026 5.9464 149 107 69
0.325922 -0.214526 7.12034 138 119 84
-1.69646 -0.210686 7.3631 173 160 108
0.371644 -0.187121 7.08158 120 108 82
0.337857 -0.179385 6.92961 121 108 84
-0.00365246 -0.162994 6.61019 68 73 70
-1.8196 -0.177793 7.03218 72 70 75
0.28184 -0.169198 7.25412 128 112 78
-1.8288 -0.150104 7.0517 168 156 117
-1.80466 -0.13863 7.02235 167 152 109
-0.435707 -0.0913025 6.08984 91 76 46
-1.29236 -0.0725684 6.47067 80 70 45
-1.61499 -0.0589272 6.96723 154 155 132
-1.57184 -0.0527468 6.92908 88 88 73
-1.58148 -0.0398613 6.98311 136 142 126
-1.71001 -0.0274024 6.86158 122 116 88
0.385246 -0.012201 6.74056 135 129 120
-1.23224 -0.00862964 6.54918 110 104 66
-1.29882 -0.00891359 6.75858 120 117 88
-1.13973 0.0191542 6.37691 82 82 56
0.367273 0.0209314 6.91602 152 136 108
-0.462975 0.0250976 6.26794 80 65 34
-0.477469 0.0307657 6.21764 83 70 30
-0.933321 0.0319588 6.16897 134 128 84
-0.257624 0.0447513 6.45787 104 87 54
0.354763 0.0415491 6.61263 152 124 102
-1.32541 0.0504756 6.87491 132 130 110
-0.732376 0.052542 6.15816 56 48 23
-0.758792 0.0540079 6.15865 102 96 69
-1.20223 0.056115 6.50198 160 150 122
-0.961643 0.0623529 6.29172 130 116 69
-1.07108 0.0826187 6.66268 107 100 50
-0.756952 0.0698338 6.21486 36 21 6
-0.649317 0.0740163 6.30037 72 59 20
-1.81097 0.0792585 6.55399 188 186 163
-1.42674 0.0809434 6.76945 151 151 132
-0.46511 0.101391 6.46987 123 104 42
-1.45276 0.125948 6.79716 148 146 131
-0.517147 0.12254 6.36322 115 101 48
0.207304 0.132526 6.59179 132 120 86
-1.21162 0.148119 6.65549 134 124 91
0.227331 0.150838 6.20146 42 33 26
0.0985376 0.178363 6.43463 92 79 56
0.209671 0.176532 6.30616 110 102 92
-0.0628168 0.188749 6.63025 118 105 85
-0.21838 0.194878 6.60233 114 98 40
-0.906586 0.205173 6.53048 157 155 114
-0.955239 0.21634 6.19579 168 165 125
-0.885235 0.237743 6.5099 153 144 104
-0.244269 0.27111 6.34289 140 120 64
-0.305804 0.270541 6.17862 126 115 70
-1.21246 0.311209 5.9965 146 146 136
-0.776826 0.336178 6.12341 124 119 87
-0.973919 0.339076 5.91819 92 91 84
0.9639 0.801055 6.14755 173 168 170
1.27275 0.908213 4.94852 168 164 164
-0.756633 -0.986905 6.85803 188 184 174
-0.724051 -0.967864 6.7556 189 186 175
-0.727499 -1.00072 6.93381 190 186 174
-0.837292 -1.04714 7.18905 191 186 174
-0.686732 -1.00772 6.96542 192 190 176
-0.87884 -1.05394 7.25117 193 190 176
-1.04255 -0.933033 6.72893 186 180 154
-0.297934 -0.931932 6.71975 213 210 194
-0.253183 -0.919223 6.83368 238 238 224
-0.513584 -0.912737 6.94435 244 244 230
-1.4947 -0.929854 7.06852 181 174 153
-0.213878 -0.892307 6.92346 231 228 210
-1.45272 -0.840446 6.65678 180 176 156
-0.260154 -0.875652 6.98725 226 222 202
-0.407716 -0.861369 6.96148 215 216 195
-1.45086 -0.742785 6.25167 200 198 190
-0.41998 -0.842332 7.16656 210 208 188
0.0983514 -0.768442 6.61467 146 137 132
-4.49518 -1.13136 9.08142 192 192 197
0.0919231 -0.715995 6.47893 116 100 98
-1.53729 -0.70531 6.35254 198 197 194
-1.56454 -0.689434 6.44992 206 198 192
-1.50757 -0.663973 6.28017 188 164 150
0.035667 -0.645837 6.27503 126 101 78
0.0125803 -0.689818 6.56561 140 92 89
-0.0202906 -0.664044 6.54383 104 49 36
0.303773 -0.615041 6.26393 170 166 167
0.273156 -0.601641 6.2107 174 170 164
-1.5197 -0.627759 6.38167 216 216 202
-1.42735 -0.584423 6.0871 121 122 132
0.372396 -0.599468 6.42683 156 150 142
0.397693 -0.650601 6.92408 143 135 121
-1.4047 -0.558198 6.16051 198 138 109
0.0401621 -0.561741 6.41709 110 98 66
-1.43489 -0.544634 6.24974 222 205 170
0.331067 -0.547464 6.34139 176 168 154
0.145484 -0.53927 6.54456 145 140 132
0.130108 -0.51105 6.41583 146 140 132
-2.74036 -0.743434 8.95872 206 210 212
-2.00321 -0.559556 7.27457 205 206 210
0.713211 -0.532283 7.43366 165 164 167
0.717516 -0.475459 6.87946 170 169 174
1.78644 -0.617489 8.30567 161 160 164
1.92774 -0.663764 8.71504 160 159 162
1.61642 -0.495395 7.11358 160 158 162
3.27676 -0.65863 8.78202 150 150 151
-0.760319 -0.3819 5.79123 174 157 113
-0.193921 -0.407926 6.1137 50 62 59
-0.833201 -0.366639 5.78842 154 154 124
-0.786961 -0.345884 5.8351 172 155 112
-0.851707 -0.35045 5.93051 136 121 104
0.044074 -0.395223 6.66431 164 155 154
-0.0151731 -0.353623 6.51249 134 120 88
-0.0416332 -0.328839 6.27661 127 110 67
-1.07884 -0.283942 6.04 187 182 142
-0.00624852 -0.312926 6.50368 116 94 48
0.175509 -0.349694 7.29807 56 50 42
-0.0347269 -0.289852 6.38117 107 96 66
-0.0498455 -0.273815 6.43014 124 108 68
-1.05431 -0.244064 5.98317 180 163 124
-0.225652 -0.235671 6.11067 38 43 42
-1.65562 -0.268552 7.04876 205 196 164
-1.62038 -0.264952 6.97679 194 166 130
-1.55411 -0.225381 6.78454 161 146 116
-1.62589 -0.239757 7.07312 162 152 110
-1.31091 -0.194505 6.25549 128 130 106
-0.131008 -0.187455 6.31389 124 104 64
-0.112464 -0.191586 6.31643 124 102 56
-0.0545699 -0.227188 7.10872 107 90 56
0.00822578 -0.18813 6.62207 52 58 54
-0.0349027 -0.226828 7.22087 60 59 50
0.158397 -0.241214 7.24994 136 118 94
0.161074 -0.201663 6.66151 146 132 112
-1.48816 -0.201314 6.55939 158 150 104
-1.58377 -0.206174 6.93498 174 160 107
0.367361 -0.186678 6.79932 64 60 62
-1.28264 -0.160596 6.16223 149 148 121
-1.77078 -0.194922 7.09077 177 153 114
-1.47682 -0.179288 6.82286 132 124 90
-1.43095 -0.173949 6.68787 92 88 62
0.0488084 -0.145549 6.45091 120 108 86
-1.53424 -0.168674 7.00278 168 157 120
-0.0588858 -0.136802 6.3174 108 89 52
-1.73794 -0.161059 6.84299 166 156 115
0.252021 -0.160098 7.15974 134 115 84
-1.59786 -0.159477 7.1377 74 72 60
-1.58734 -0.1415 7.10528 106 107 92
-1.76421 -0.116941 6.95944 170 158 112
-1.3642 -0.0929221 6.68285 112 108 78
-0.47926 -0.0563912 6.07783 94 88 69
0.415357 -0.0563264 6.75662 128 78 70
-1.30438 -0.0492596 6.56267 136 129 100
-0.128331 -0.0223142 6.54483 116 100 64
-1.48857 -0.0344741 6.55335 110 110 98
-1.61554 -0.0356648 6.71517 89 86 74
-0.527912 -0.0188979 6.10182 83 81 59
-0.328288 -0.0121183 5.972 134 118 66
-1.71705 -0.0276946 6.94698 118 120 107
-1.77212 -0.00207559 6.75274 148 144 110
-0.185943 0.0156634 6.23897 111 91 67
0.373777 0.0205176 6.62723 164 130 116
-1.08965 0.024127 6.20689 120 116 82
-0.256902 0.0238564 6.65252 102 82 36
-0.292968 0.0291558 6.22738 118 99 41
-0.297515 0.030804 6.48598 112 84 20
-1.10227 0.0243764 6.41939 114 97 55
-0.809603 0.040482 6.04984 140 124 72
-0.445475 0.0445702 6.27269 137 123 61
-0.498168 0.0476879 6.17709 97 85 43
-0.264082 0.0494831 6.3458 98 76 39
-0.260136 0.0484731 6.71681 112 99 70
-1.09357 0.0587784 6.40849 114 104 72
-0.51677 0.0525335 6.06879 52 38 13
-0.318694 0.0526211 6.60605 80 60 14
-0.475456 0.0528338 6.24258 104 91 40
-0.760697 0.0688684 6.10136 98 94 50
-0.744262 0.0670512 6.32918 75 62 32
-0.508323 0.0644469 6.25753 141 124 56
-1.08391 0.0690867 6.4084 72 68 42
-1.3344 0.0731818 6.79645 120 118 94
-1.3135 0.0732515 6.95007 114 115 100
-0.903416 0.0775682 6.1913 128 120 68
-0.742818 0.0832671 6.19421 110 82 30
-1.31525 0.0930632 6.76606 186 182 143
-1.2996 0.0915394 6.93764 154 154 131
-0.558746 0.0874972 6.31027 142 126 54
-1.11175 0.10354 6.68853 158 160 129
0.0127095 0.107354 6.55173 110 97 82
-0.00893386 0.111194 6.58952 92 78 67
-1.14025 0.116052 6.782 120 121 94
-0.57307 0.111476 6.2959 136 122 64
0.287397 0.11812 6.35721 105 56 44
-1.53189 0.121852 6.75872 106 104 94
-1.37094 0.126532 6.66481 80 79 65
-0.684755 0.126061 6.23362 80 71 34
-0.730164 0.131533 6.29504 70 64 29
0.0998226 0.136808 6.62033 102 97 78
0.182208 0.135584 6.48572 106 91 64
-0.796455 0.134507 6.35329 47 40 13
-0.768674 0.13434 6.35565 58 54 17
-0.141963 0.141533 6.47275 86 72 50
0.217257 0.151169 6.25941 66 59 58
-1.2446 0.151452 6.70008 147 146 121
0.113496 0.162606 6.47449 112 102 82
-0.225008 0.181721 6.51795 84 66 30
0.00173028 0.195833 6.04885 134 128 104
0.0497551 0.20831 6.68276 112 101 72
0.13717 0.203099 6.27627 112 38 34
-0.815366 0.203303 6.25201 122 112 74
-0.796744 0.206378 6.43764 126 123 90
-0.741881 0.233255 6.35715 120 124 94
-1.5886 0.231825 6.34179 180 158 148
-0.168334 0.267393 6.51741 124 109 83
-0.342046 0.282394 6.21555 118 114 79
-0.456613 0.289796 5.78166 160 148 96
-0.797335 0.351959 6.41371 92 89 71
-1.06704 0.324556 5.82283 156 120 109
-1.15583 0.338947 6.33493 190 175 152
-0.569974 0.339191 6.00111 130 66 44
-1.10932 0.347428 6.32967 187 183 158
-0.825877 0.344538 5.99413 134 98 77
-1.20213 0.858606 5.12844 189 185 184
-1.51148 1.00442 4.72623 194 190 192
-0.911764 -0.959654 6.79518 191 188 174
-0.398404 -0.951865 6.87349 218 216 200
-1.24916 -0.96963 7.00904 185 180 162
0.065487 -0.883614 6.96988 170 164 162
0.0980781 -0.790735 6.61945 150 146 142
-4.69598 -1.20544 9.29102 188 190 192
-4.99071 -1.07004 9.43 186 189 193
0.196806 -0.628725 6.51501 176 172 168
0.393162 -0.572018 6.47318 134 124 110
0.17148 -0.528601 6.32874 156 150 147
0.205025 -0.479804 6.69356 173 171 175
-1.2597 -0.429699 6.02798 216 202 146
0.448109 -0.443736 6.56936 153 149 148
-0.325373 -0.402238 6.05821 118 112 87
0.0195425 -0.419486 6.35974 135 122 94
-1.25075 -0.39852 6.08336 211 201 150
-0.270167 -0.372812 6.02081 102 96 72
-1.25527 -0.372712 6.04058 198 177 134
-0.238789 -0.352154 6.09627 49 67 60
-0.0272996 -0.328948 6.34884 120 104 63
-0.0454646 -0.320212 6.34282 112 98 56
-0.00650301 -0.326488 6.50108 132 109 67
-0.0314997 -0.313119 6.5668 116 102 68
0.00319076 -0.316093 6.89002 130 110 66
0.224994 -0.280463 6.55935 118 93 86
-1.313 -0.24974 6.34912 101 101 90
-0.752105 -0.219194 5.90752 161 138 94
-1.78116 -0.289646 7.40154 210 210 216
-1.79417 -0.263168 7.44722 88 84 72
-1.81402 -0.251315 7.4557 160 154 118
-0.8824 -0.15736 5.90327 168 147 110
-1.82141 -0.223055 7.34704 167 148 119
-1.8185 -0.142321 6.95904 172 139 107
0.403573 -0.113803 6.93592 122 110 94
-1.76235 -0.107618 7.0708 152 152 120
-1.02307 -0.037982 6.05666 152 147 110
-0.689361 -0.0165608 6.07311 122 117 88
-0.942026 0.00783151 6.09788 108 112 86
-1.59791 0.00695006 6.92071 104 102 92
-0.340088 0.0184445 6.39352 122 104 54
-1.42909 0.0335731 7.07088 136 133 120
-0.457667 0.0394979 6.20048 82 66 36
-1.57287 0.0477207 6.69258 135 132 105
-1.75279 0.0588395 6.62487 144 140 119
-1.45658 0.0414487 6.82838 113 112 104
-0.905001 0.064384 6.19315 121 116 72
0.289981 0.0506143 6.73378 146 130 102
-1.26553 0.0809493 6.82204 158 158 132
-0.713015 0.0772337 6.23458 119 106 62
-1.27555 0.0912025 6.71557 168 168 142
-0.556103 0.0887007 6.2166 140 128 58
-0.346328 0.0955851 6.44726 78 64 26
-0.544376 0.119405 6.34003 74 58 16
-1.54317 0.128122 6.58859 122 128 118
-0.128759 0.143442 6.61975 92 83 64
-1.47428 0.140768 6.64083 151 142 117
-0.12762 0.158482 6.59858 72 50 24
-0.375915 0.182299 6.64275 82 64 26
-1.5042 0.247799 6.18182 140 142 131
-1.50716 0.269654 6.32347 110 110 104
-1.10406 0.313271 5.72563 211 208 186
-0.979978 0.339057 5.90321 139 140 129
-1.06981 0.992699 4.74709 186 182 181
-0.289455 -0.968359 6.86697 188 183 176
-1.33754 -0.898358 6.77866 181 176 154
-2.57868 -0.643859 7.92583 187 188 192
0.00531573 -0.328092 6.57731 118 90 52
-1.79754 -0.231352 7.08102 218 212 212
-0.796762 -0.17173 5.94124 154 106 72
-0.737889 -0.162472 6.03483 146 112 80
-0.0137051 -0.177605 6.6065 69 64 50
-1.20131 -0.156387 6.17266 92 84 56
-0.180226 -0.0944201 6.3519 121 101 41
-1.73745 -0.0801172 6.89807 166 152 108
-1.77571 -0.0483599 6.75103 164 153 110
-1.49923 -0.0309681 7.06527 130 130 108
-0.701166 0.0483349 6.12781 132 120 66
-1.76229 0.0741022 6.52235 161 147 124
-0.0389551 0.236617 6.11874 146 130 92
-1.47213 0.238929 6.14739 133 130 119
-1.61551 -1.6768 8.82427 182 178 177
-4.26676 -0.875055 9.32473 192 195 199
0.778285 0.0816505 7.49188 146 134 126
-1.25617 0.404025 6.68016 174 172 163
-0.366285 -0.47144 5.90075 24 27 44
-0.12534 -0.411266 6.1659 24 24 25
-0.749128 0.382475 6.2096 170 166 156
-4.13906 -2.08786 8.69608 196 199 203
1.022 -1.93384 8.50002 164 158 160
-3.66402 -1.94441 8.7959 196 198 198
3.37796 -1.82761 8.83831 148 148 149
-0.321506 -1.18765 6.98707 181 177 175
-0.695908 -1.11129 6.98747 188 186 186
3.42841 -1.38637 8.88059 154 152 154
-0.774084 -1.0522 7.25327 198 195 184
-0.815584 -1.0475 7.24671 200 198 184
-0.773253 -1.03321 7.15356 200 198 186
-0.982609 -1.08737 7.51158 200 196 183
-0.321104 -0.950554 6.77061 216 214 200
-0.350475 -0.958017 6.8305 228 226 212
-0.291468 -0.964414 6.85615 211 208 195
-0.406918 -0.962126 6.90474 230 230 212
-1.04053 -0.922693 6.71877 180 172 143
-0.30992 -0.947335 6.85416 227 227 216
-0.300771 -0.959182 6.92183 221 220 206
-0.29104 -0.965292 6.93774 220 218 204
-4.89227 -1.36645 9.39087 194 196 201
-1.06955 -0.925391 6.75924 183 177 148
-0.36049 -0.929897 6.78106 226 226 212
-0.344506 -0.938905 6.81653 237 238 224
-0.32652 -0.943733 6.86128 250 251 242
-4.76218 -1.32572 9.1747 196 198 204
-4.99826 -1.36249 9.57746 196 198 202
-0.508158 -0.931584 6.88323 229 228 208
-0.0870651 -0.940268 6.92252 196 192 186
-0.0658243 -0.942163 6.9664 187 183 176
-0.401803 -0.895764 6.73213 244 243 228
-0.227301 -0.929837 6.96399 224 224 203
-0.43597 -0.900716 6.99428 248 249 230
0.0431748 -0.872267 6.74624 183 178 176
-1.46474 -0.871541 6.80954 188 187 160
-0.517931 -0.889888 6.96496 239 238 218
-0.42671 -0.878574 6.96335 239 241 220
0.0538372 -0.860509 6.86068 177 171 167
0.0896291 -0.828124 6.72263 168 161 161
-0.370054 -0.837329 6.84764 224 225 204
-0.370293 -0.855741 6.99432 221 220 198
-1.5228 -0.785453 6.58061 200 196 180
0.0823518 -0.806131 6.66321 196 190 180
0.095646 -0.776978 6.65521 89 84 82
-1.55639 -0.771353 6.59554 193 190 169
-0.598856 -0.72907 6.39829 186 182 157
-0.662519 -0.672415 6.04815 170 166 138
-1.04169 -0.80471 7.09511 167 162 133
-1.05662 -0.755851 6.78325 163 156 127
-1.03718 -0.782458 6.94695 164 158 129
0.0849445 -0.741885 6.58423 139 112 106
-0.9733 -0.735476 6.62539 164 159 129
0.061739 -0.751349 6.63509 174 154 142
-1.09665 -0.712789 6.55879 158 152 122
-1.19696 -0.717794 6.63654 158 150 120
0.0520776 -0.712247 6.54982 150 126 116
0.0795254 -0.697774 6.53378 124 92 90
-1.48833 -0.672829 6.30329 198 195 182
-1.30634 -0.71558 6.70958 158 152 122
0.0427552 -0.691624 6.45961 144 136 120
-1.52911 -0.665019 6.32653 211 207 207
0.0676634 -0.665857 6.34586 90 82 80
0.0947529 -0.719069 6.65625 153 146 144
-1.52548 -0.650665 6.3216 210 208 205
0.0356993 -0.648686 6.27879 150 124 97
0.037248 -0.63561 6.27286 138 106 79
-1.53817 -0.636502 6.38608 178 178 172
0.0716044 -0.672477 6.62989 132 120 110
0.178971 -0.707367 6.69757 182 178 180
-1.38312 -0.593054 6.11056 196 188 170
0.0645401 -0.624591 6.40874 132 121 102
-1.43288 -0.59923 6.2934 194 146 132
-1.41554 -0.584898 6.21337 179 80 70
0.326864 -0.623771 6.52878 180 172 167
1.62363 -0.677317 6.86056 164 164 164
1.89177 -0.719907 7.31842 166 164 166
0.341755 -0.615545 6.50899 175 168 164
0.366465 -0.599813 6.42312 176 170 168
0.36569 -0.613278 6.53599 180 174 174
-1.42768 -0.569309 6.26509 162 72 64
0.150042 -0.616912 6.60732 179 173 165
0.399939 -0.58037 6.35998 180 176 177
0.0907922 -0.612496 6.67935 172 163 152
0.361824 -0.594175 6.56442 148 136 124
-1.27349 -0.520687 6.00253 70 75 78
0.054497 -0.547321 6.22622 119 106 72
0.0962372 -0.571321 6.48222 130 116 90
0.114979 -0.588162 6.55942 144 132 112
0.221612 -0.572403 6.44858 185 178 166
-4.45154 -0.876791 9.45549 190 190 190
0.254056 -0.567928 6.40207 177 170 160
0.264056 -0.568828 6.43338 180 174 162
-0.692943 -0.595185 6.72434 162 96 80
0.29673 -0.557137 6.44525 172 168 157
0.310847 -0.552336 6.4168 180 174 160
0.340696 -0.541967 6.33671 176 170 151
-4.39431 -0.848472 9.41161 194 194 194
0.0128378 -0.541328 6.35525 114 108 83
-0.696429 -0.48902 5.89349 142 143 137
-0.0182534 -0.526073 6.22573 134 112 76
0.112878 -0.559381 6.56089 155 146 128
0.309453 -0.551251 6.52688 176 172 160
0.415312 -0.538174 6.37715 138 126 118
0.427105 -0.537668 6.3758 174 164 166
-4.83724 -0.831657 9.45977 204 208 216
-4.78095 -0.83354 9.4659 195 201 206
-4.58418 -0.812877 9.35294 207 212 216
-0.460889 -0.468946 5.85182 136 70 56
-4.20126 -0.812562 9.32841 200 202 208
0.0543975 -0.52112 6.38615 116 102 72
0.171451 -0.521039 6.37157 165 160 157
0.427634 -0.532119 6.55324 182 177 178
-3.69172 -0.743453 8.75767 208 212 218
-3.84733 -0.784173 9.13599 203 206 212
-3.90093 -0.800732 9.33004 204 208 210
-3.68856 -0.735393 8.69028 212 216 222
-3.76045 -0.778161 9.12603 203 207 208
0.0446917 -0.515432 6.36022 106 100 77
0.138495 -0.526901 6.48702 149 140 134
0.379758 -0.516656 6.4076 146 136 118
-3.17713 -0.751036 8.96666 196 198 202
-3.15224 -0.753747 8.9956 194 196 202
0.439071 -0.513514 6.48775 182 178 180
-1.43001 -0.480577 6.23854 228 224 204
-1.47834 -0.482368 6.36054 224 218 184
0.0476646 -0.501997 6.36713 125 114 88
0.44495 -0.491341 6.33649 146 139 136
-0.026548 -0.481624 6.33781 133 116 72
0.422838 -0.502079 6.48706 134 122 111
0.00926879 -0.464736 6.2269 134 118 74
-0.0337518 -0.454202 6.14855 68 61 48
-0.968813 -0.412884 5.85885 185 184 145
-1.25767 -0.429065 6.05196 205 186 119
0.443919 -0.477348 6.45997 148 142 141
-0.813673 -0.411944 5.85627 166 134 94
0.200246 -0.476128 6.69847 177 176 180
0.234722 -0.466152 6.62211 176 174 179
0.298236 -0.452051 6.50008 182 180 184
3.4942 -0.727195 9.25162 156 156 157
-0.0556485 -0.428225 6.04556 34 41 42
-1.24203 -0.413452 6.0276 207 194 138
-0.439467 -0.405029 5.86999 152 134 86
-0.74399 -0.382858 5.75786 180 166 116
-0.439812 -0.400833 5.93684 142 116 53
-0.13024 -0.417928 6.07166 47 52 50
-0.118184 -0.423846 6.13284 40 46 44
-0.58316 -0.388348 5.8324 164 150 106
1.10862 -0.489694 6.9897 177 174 180
1.10528 -0.463626 6.56573 174 172 177
-0.445327 -0.396827 5.89762 151 124 65
-0.330885 -0.40261 5.94619 124 119 90
-0.31836 -0.406656 6.01719 116 116 92
1.38185 -0.453105 6.74796 171 169 173
-1.46558 -0.416759 6.34296 228 228 214
-0.979865 -0.390397 5.90124 190 185 144
1.90667 -0.66859 9.06175 172 170 175
-1.24797 -0.395681 6.04136 218 210 162
-0.74223 -0.370368 5.67562 182 170 122
-0.0186397 -0.417878 6.35036 136 122 81
0.0120814 -0.422249 6.37106 126 112 75
0.419451 -0.415786 6.3164 160 152 140
-1.18502 -0.379183 6.10047 212 196 142
-0.197102 -0.387322 6.0574 62 69 56
0.00540072 -0.412797 6.31483 140 124 87
-1.26049 -0.379387 6.06271 208 188 145
-0.0143003 -0.407188 6.29917 126 108 69
0.414857 -0.415972 6.51757 146 136 126
0.431873 -0.417236 6.37908 144 132 126
-1.19224 -0.367724 6.08342 202 172 118
-0.317036 -0.379197 6.06134 121 118 88
-1.26534 -0.365205 6.08204 200 176 138
-1.24055 -0.359371 6.10347 216 206 159
-0.876061 -0.348834 5.88966 152 139 120
0.43916 -0.40266 6.39032 148 140 136
0.434258 -0.414395 6.64377 202 197 199
-0.903306 -0.346823 5.89621 190 164 124
-0.262383 -0.369339 6.1185 47 65 62
-0.273002 -0.352877 6.06766 32 40 37
-0.0383095 -0.372392 6.3257 134 116 73
-0.0220535 -0.373505 6.29055 127 108 68
-1.26012 -0.346864 6.10735 201 188 145
0.431806 -0.381178 6.39239 149 140 135
-0.69068 -0.330457 5.83926 159 132 92
-0.0812657 -0.352653 6.21614 43 53 49
-0.260436 -0.332336 6.01492 34 45 44
-1.32513 -0.345611 6.16941 207 201 176
0.0484782 -0.380052 6.58697 136 130 118
0.0434907 -0.391862 6.71648 165 156 150
0.404773 -0.374838 6.56284 150 140 132
-0.0243253 -0.353025 6.33081 136 120 78
-1.46008 -0.346268 6.41746 168 170 168
0.0356884 -0.377584 6.62099 144 134 116
-0.94512 -0.314956 5.91947 150 112 70
0.398823 -0.365032 6.57459 151 141 133
0.0161477 -0.362571 6.52598 136 128 103
-1.51702 -0.341526 6.55784 187 189 184
-0.79509 -0.313311 5.91865 178 148 114
0.399399 -0.370148 6.80403 186 179 180
-0.0258099 -0.332829 6.34006 130 111 62
-1.47655 -0.31828 6.48997 190 192 186
-0.0959553 -0.321728 6.21341 84 81 65
0.146748 -0.359777 6.75466 210 199 198
-0.0304115 -0.31416 6.1952 114 100 60
0.0192198 -0.343115 6.52814 127 111 71
0.409719 -0.342366 6.53445 154 147 144
-0.0357946 -0.31156 6.40879 124 110 65
-0.0522227 -0.314601 6.26996 90 85 55
0.130829 -0.338534 6.72211 136 106 76
-1.05872 -0.291176 6.0704 200 188 140
-0.989085 -0.282853 5.98932 160 137 110
-0.499077 -0.270878 5.77235 144 116 74
-1.0831 -0.279942 6.02354 197 191 148
-0.00434284 -0.308855 6.4751 128 99 46
-0.0864891 -0.295948 6.23314 53 58 58
0.321603 -0.344354 6.79248 186 182 174
-1.11255 -0.27081 5.99838 178 188 163
-1.09862 -0.268562 6.01936 183 181 152
-1.01446 -0.269372 5.98304 185 166 126
0.0299574 -0.304434 6.64121 134 118 74
0.0690155 -0.344995 7.11783 151 133 89
2.52281 -0.322081 6.40458 182 178 178
-0.451097 -0.271311 5.97253 132 132 104
-0.113434 -0.283231 6.18875 28 25 24
0.0132358 -0.299277 6.42166 129 107 55
-0.90545 -0.259151 5.84834 179 158 118
-0.0685933 -0.277906 6.13534 25 28 27
-0.0121081 -0.297227 6.4604 124 100 47
-1.0734 -0.268977 6.05371 202 190 144
-0.0384707 -0.290217 6.37862 110 108 82
0.0306874 -0.289907 6.55308 133 112 69
0.231716 -0.326803 6.95885 82 74 72
0.134232 -0.298626 6.79101 139 125 86
0.0915191 -0.354503 7.59382 134 122 89
-1.08031 -0.253711 6.00501 196 176 134
-0.105137 -0.270117 6.2397 48 46 44
-1.24446 -0.252911 6.14712 164 160 139
-1.05522 -0.247116 5.98433 180 162 121
-0.19713 -0.255619 5.92697 49 62 60
-0.0299223 -0.274261 6.31261 110 105 71
0.0234757 -0.289999 6.69233 146 128 86
0.211563 -0.31581 6.98191 131 118 96
0.363733 -0.296332 6.62847 150 140 136
-1.27372 -0.250735 6.1527 125 125 115
-0.786924 -0.234492 5.89194 170 149 110
-0.0345355 -0.267594 6.40684 128 112 69
-0.0378435 -0.266079 6.50605 128 108 58
-0.0198144 -0.280685 6.49225 133 110 54
1.12862 -0.364042 8.14705 189 183 185
-1.05261 -0.23165 6.0101 186 182 152
-0.884869 -0.22488 5.93127 180 158 120
-0.207414 -0.240224 6.1308 25 26 21
-0.710016 -0.221511 5.8808 171 150 109
-0.913538 -0.215407 5.92139 154 146 116
-0.0278921 -0.253157 6.59164 123 98 50
-0.909598 -0.212596 5.97518 150 141 116
-0.216206 -0.225236 6.11314 50 48 44
-0.774834 -0.204914 5.87268 159 130 90
-0.713009 -0.210777 5.92675 169 147 107
-0.97531 -0.203497 5.97668 192 168 126
-0.027572 -0.234944 6.44163 112 97 61
0.0652516 -0.266959 6.95058 99 94 74
0.0924803 -0.272859 7.28298 68 58 50
-0.158505 -0.214701 6.13562 66 66 39
-0.153843 -0.219436 6.24843 89 82 40
-0.0412142 -0.237712 6.86717 107 96 70
-0.0147944 -0.247722 6.79079 102 94 68
0.385717 -0.254269 6.85632 182 176 176
-0.9059 -0.194732 6.01547 160 155 122
0.197342 -0.274204 7.13186 172 164 146
0.308353 -0.256063 6.86695 136 124 102
-0.51674 -0.194042 6.00035 135 132 104
-1.3641 -0.198171 6.39176 120 109 81
0.172462 -0.271099 7.25726 162 154 134
-1.15646 -0.191528 6.1026 202 188 136
-0.348433 -0.187297 6.05226 141 112 42
-0.175986 -0.200177 6.23669 132 106 48
-0.0359212 -0.210221 6.81644 68 66 60
-1.42915 -0.187072 6.49515 165 157 113
-0.131728 -0.196309 6.37893 134 113 62
0.305755 -0.246562 6.75874 144 124 100
-1.33195 -0.181258 6.41022 102 94 68
-0.794696 -0.175111 5.9502 158 117 79
0.292262 -0.235654 6.75276 145 123 98
-0.923975 -0.165303 5.98127 166 138 108
-0.54451 -0.18307 6.04967 144 134 96
0.027496 -0.224329 6.90374 56 56 56
0.364565 -0.230956 6.84451 136 100 82
-0.135932 -0.179606 6.16164 130 114 63
0.160299 -0.202016 6.63448 148 136 118
0.384666 -0.223693 6.98335 137 103 94
-0.797366 -0.163804 5.956 148 101 68
-0.0517474 -0.188172 6.51963 116 100 60
0.00312188 -0.22419 7.20405 66 70 68
-1.34756 -0.172144 6.3747 145 137 95
-0.985079 -0.160741 6.04984 172 144 106
-0.922684 -0.163176 6.0326 170 145 107
-1.38548 -0.168332 6.4945 166 160 121
-0.113333 -0.171211 6.27237 125 103 56
0.241875 -0.204219 7.14045 134 112 85
-1.20201 -0.162741 6.1662 108 99 74
-0.126426 -0.163838 6.23254 114 102 64
-0.0533279 -0.174237 6.51051 118 98 52
-0.0889068 -0.186797 6.91635 115 94 52
0.0167449 -0.190858 6.75005 96 84 62
-1.82176 -0.172227 6.94425 230 220 214
-0.968533 -0.149394 6.01786 156 119 78
0.0203773 -0.193471 6.99655 80 76 68
0.331496 -0.211863 7.22534 150 126 99
-1.68822 -0.173448 6.95227 176 158 113
-1.47778 -0.161133 6.69579 151 142 94
-0.900846 -0.147396 6.04966 176 144 101
-0.157977 -0.161905 6.29251 128 114 66
-0.144101 -0.158884 6.27086 117 108 65
-1.20693 -0.147841 6.1933 159 156 124
-0.0799731 -0.161288 6.58454 120 102 53
-0.0448277 -0.162958 6.46628 122 102 52
-0.992514 -0.139872 6.05184 174 154 106
-0.963572 -0.137395 6.01788 165 127 82
0.037686 -0.18509 6.96348 64 61 56
-0.192588 -0.148502 6.23341 124 90 42
0.315185 -0.183356 6.99871 144 130 102
0.330441 -0.18152 6.94822 145 130 100
-3.04297 -0.15793 7.83062 217 221 224
-1.24754 -0.128645 6.31111 111 112 91
-0.875695 -0.131083 6.00221 151 118 74
-0.436591 -0.121399 6.05207 135 104 57
-0.0706317 -0.158199 6.57707 114 96 46
-1.7676 -0.153296 6.88061 175 163 130
-0.00566425 -0.18278 7.21092 84 75 57
0.0132036 -0.186388 7.16892 134 124 104
-0.513131 -0.129411 6.04795 146 138 96
-0.480316 -0.127715 6.10651 148 130 80
-0.0998547 -0.142102 6.61876 111 90 46
0.277356 -0.159987 7.04161 137 125 98
0.398508 -0.181622 6.89123 113 96 88
-1.45171 -0.121533 6.66015 158 154 114
-1.37903 -0.126629 6.53304 112 111 84
0.357754 -0.167817 7.16605 142 128 101
-1.42767 -0.127806 6.69207 94 95 72
0.285784 -0.159706 7.10109 137 122 94
-0.487613 -0.118419 6.08298 150 138 88
-0.0498683 -0.152768 6.70478 130 112 70
-0.00118791 -0.144159 6.76481 122 104 74
0.236308 -0.148067 7.07872 132 110 80
-1.3636 -0.114657 6.48325 118 116 90
-0.876005 -0.110036 6.04583 150 110 67
-1.36832 -0.111616 6.54422 102 104 72
-0.409382 -0.104992 6.0705 144 130 83
0.248962 -0.148214 7.15386 144 128 97
-1.82564 -0.118734 6.91855 166 132 98
-1.75904 -0.114428 6.80485 172 147 108
-1.80552 -0.121936 7.02554 166 152 106
-0.960128 -0.101724 6.0533 152 149 114
-0.285182 -0.107855 6.19967 87 76 44
0.1769 -0.134899 7.12337 144 126 90
0.189572 -0.136934 7.15046 138 119 82
0.203374 -0.136719 7.1518 138 117 82
-1.27581 -0.0946462 6.38866 108 106 64
-0.853572 -0.101064 6.02514 134 98 58
0.360243 -0.124308 6.78632 132 124 100
0.408202 -0.148041 7.05076 146 114 96
-0.758536 -0.0962144 6.00853 138 102 60
-0.137415 -0.10358 6.40978 122 100 40
-1.26546 -0.0908667 6.39794 124 114 80
-0.717519 -0.0888277 6.00207 154 136 88
0.187957 -0.120215 7.11309 142 124 90
-0.802549 -0.0824879 5.99048 140 112 77
-0.290805 -0.0938728 6.13977 63 51 33
0.437695 -0.130668 6.99508 142 128 120
-1.80518 -0.0863141 6.65584 221 221 211
-1.84955 -0.0926295 6.90433 155 146 114
-1.78544 -0.0870943 6.7951 174 160 118
-1.78542 -0.0884934 6.88092 169 149 92
-0.355069 -0.0877467 6.14386 102 107 94
-1.36083 -0.0812715 6.57001 164 162 130
-1.37114 -0.0727627 6.64136 94 88 57
-1.75627 -0.0833564 6.84592 166 146 88
-1.72186 -0.0795698 6.89121 171 157 114
-0.180018 -0.0857188 6.3382 123 101 36
-0.209022 -0.099672 6.63253 128 108 46
-0.136259 -0.0796264 6.46443 124 104 45
0.172816 -0.108266 7.12342 138 124 93
0.434621 -0.118799 7.00782 117 106 98
1.34841 -0.0956253 6.3539 185 179 181
-1.63542 -0.0801766 6.90618 138 120 87
-0.376706 -0.073173 6.16043 86 86 59
-0.456399 -0.0695166 6.05351 132 124 86
-0.221368 -0.0778181 6.40005 128 105 38
0.149588 -0.0901236 6.99016 132 114 86
0.309352 -0.0943318 6.88672 144 130 100
0.394416 -0.0894772 6.80235 150 136 111
-1.75979 -0.066244 6.66728 158 148 114
-1.74484 -0.0673884 6.94541 168 151 108
-0.881418 -0.0616103 6.06035 148 134 92
-0.808926 -0.0615281 6.07912 114 128 116
-0.205905 -0.0901834 6.46474 134 114 54
-1.75759 -0.0681746 7.00032 171 152 111
0.351772 -0.0843367 6.78919 149 134 107
-0.398296 -0.0581869 6.15789 37 26 8
-0.331945 -0.0595229 6.25019 126 114 62
-0.224617 -0.0611431 6.36224 124 100 27
-0.131237 -0.0753644 6.54479 119 101 44
-1.61214 -0.0489709 6.82113 134 135 112
-1.72203 -0.0417263 6.59231 167 152 112
-0.903333 -0.0394652 6.15637 159 149 104
-0.0162911 -0.064581 6.75694 138 126 92
0.0333329 -0.0776802 6.96916 132 117 84
-0.723919 -0.034017 6.10238 26 20 6
-0.373061 -0.0514935 6.18736 134 126 68
-0.683598 -0.03351 6.03961 80 74 46
-0.442338 -0.0369128 6.06249 84 80 50
2.03752 -0.0858807 6.74505 184 180 180
-1.74782 -0.0251541 6.50982 163 128 102
-1.5346 -0.0303503 6.98389 66 66 64
-0.0544191 -0.0471551 7.08553 136 118 82
0.0318686 -0.0460805 6.97436 134 116 83
0.401675 -0.0508811 6.70719 158 130 116
-0.520196 -0.0236887 6.14834 131 124 80
0.137967 -0.0454465 7.08055 138 121 90
-1.33075 -0.0139636 6.67733 144 138 110
-1.08871 -0.0233129 6.1877 142 127 83
-0.15258 -0.0407452 6.79543 130 116 77
-0.0943924 -0.042321 6.80611 131 116 84
-1.69223 -0.0126184 6.64277 166 154 108
-1.31071 -0.0111505 6.66854 113 108 85
-0.532739 -0.0205555 6.10294 54 54 24
-0.140892 -0.0363345 6.61828 120 104 60
0.39182 -0.0445376 6.87829 152 126 108
-0.377075 -0.0177782 6.27141 126 117 62
0.14933 -0.026642 6.95088 144 128 96
-1.01805 -0.0103424 6.15956 142 136 96
-0.226437 -0.0213569 6.39938 120 103 40
-0.117214 -0.0296577 6.76791 124 109 74
-0.0996335 -0.0287411 6.74863 124 106 74
-0.144856 -0.0334822 7.20581 126 109 80
-0.172578 -0.0237723 6.69455 113 95 53
-0.145521 -0.0239436 6.62279 117 100 58
0.182788 -0.0244996 6.90003 130 116 94
-1.4852 0.00335919 6.92052 132 130 112
0.431371 -0.0331689 6.81696 144 128 116
-1.45644 0.00827914 6.80376 100 102 91
-1.6498 0.0130574 6.78794 136 133 110
-1.66223 0.0105598 6.86775 128 125 98
-1.24893 0.00892365 6.58677 114 112 86
-0.804381 0.00732056 6.09977 144 126 60
-0.343736 -0.00108476 6.2515 86 75 32
-0.814437 0.0127252 6.10073 150 128 65
-0.259604 -0.0031415 6.91486 109 91 48
-0.228193 0.00660583 6.77305 119 100 73
-0.161671 0.00224591 6.74371 116 100 73
-1.80511 0.023026 6.73908 163 150 112
-1.62147 0.0205826 6.85566 110 95 71
-0.809956 0.02149 6.11803 150 132 76
-0.238537 0.0138127 6.59672 96 80 30
0.121347 0.00200129 6.97172 140 126 99
0.371816 0.00220298 6.72443 132 120 106
-1.80872 0.0260714 6.6218 149 144 118
-1.65943 0.0258963 6.74322 138 134 117
-1.49394 0.0271693 6.84908 122 122 111
-1.49092 0.0190486 6.98219 160 158 136
-1.20987 0.0223954 6.54182 88 81 56
-0.821119 0.0233208 6.11223 138 110 59
-0.345348 0.01521 6.36763 64 48 18
-0.314244 0.0176196 6.32538 70 58 19
-0.225117 0.012727 6.6782 113 96 64
0.152855 0.00838074 7.01189 140 126 100
0.420533 0.00919999 6.55405 134 124 113
-0.352037 0.0227297 6.2447 40 20 0
-0.339274 0.0257406 6.31474 128 108 54
-0.289004 0.0284187 6.50297 109 72 11
-0.265751 0.0196213 6.43586 116 81 22
-1.76661 0.0425421 6.53682 154 146 122
-1.7882 0.0382025 6.69973 161 148 120
-1.393 0.0303189 6.77444 89 88 79
-0.681664 0.0314305 6.16697 108 112 76
-0.285809 0.0291999 6.37024 124 92 28
-0.106414 0.0244168 6.8988 124 103 72
-1.79813 0.0610391 6.5356 165 126 108
-1.74606 0.0448005 6.64197 120 114 92
-0.791842 0.0337658 6.25548 143 133 76
-0.31604 0.0299457 6.41495 128 110 44
-0.254633 0.0327116 6.8642 116 100 72
0.222871 0.0145891 6.8564 148 130 106
-1.5548 0.0471918 6.8079 164 162 141
-1.5617 0.0498648 6.85716 122 119 94
-1.36878 0.0439629 6.81437 116 118 106
-0.558564 0.0330751 6.25784 136 118 66
-0.444122 0.0352933 6.18649 143 130 80
-0.290644 0.0416252 6.39939 124 98 38
0.188132 0.0310098 6.73983 146 128 102
0.276319 0.0189117 6.62267 157 140 114
-1.6734 0.0557219 6.81651 146 135 114
-1.32571 0.0533755 6.77007 120 114 100
-0.314837 0.0442275 6.60144 120 96 36
-1.45426 0.0633589 6.75994 122 118 92
-0.768787 0.0508969 6.14793 92 84 46
-0.717647 0.0491035 6.17782 134 125 76
-0.659038 0.0488913 6.18338 118 106 72
-0.31522 0.0516507 6.45001 122 102 40
-1.36861 0.0668155 6.79567 170 170 152
-1.28252 0.0648146 6.72159 169 170 144
-1.19898 0.0607204 6.63394 118 117 95
-0.536394 0.0506044 6.19579 46 31 6
-0.465409 0.0526394 6.20557 86 76 26
-0.320744 0.0413777 6.91085 94 82 48
-1.74918 0.0683957 6.58331 155 150 124
-1.44419 0.0583447 6.87304 94 88 74
-0.383783 0.0563964 6.3115 141 124 49
-0.372248 0.0546589 6.33007 122 111 50
-0.269805 0.0580082 6.40018 87 64 20
-0.279085 0.0597753 6.57838 84 68 34
-0.165887 0.0521121 6.85265 108 96 72
-1.35208 0.0674867 6.86207 160 159 140
-1.30131 0.0668963 6.84376 146 145 122
-0.937528 0.0576972 6.30639 126 121 76
-0.652669 0.06015 6.24491 130 123 76
-1.473 0.0778854 6.79384 184 179 149
-1.46242 0.0744401 6.80197 174 166 143
-1.39014 0.0742772 6.79309 116 112 102
-0.468905 0.0653916 6.24544 142 124 48
-0.10941 0.061434 7.02825 127 115 83
-1.79735 0.0851795 6.75863 136 132 116
-1.46154 0.0767484 6.85819 178 173 153
-1.43719 0.0768276 6.82592 162 160 138
-0.772742 0.0662519 6.27 44 28 12
-0.455593 0.0706292 6.41126 140 116 32
-1.79646 0.081389 6.44764 220 221 215
-1.79101 0.0818272 6.46526 196 198 184
-1.32074 0.0822966 6.79584 180 178 152
-0.605556 0.0697167 6.18697 110 98 39
-0.325997 0.0737127 6.48798 68 51 8
-1.51511 0.0875857 6.68792 112 106 92
-0.930805 0.0749208 6.29055 132 124 72
-0.609902 0.0752813 6.06766 132 123 68
-0.331336 0.0768244 6.81517 80 64 34
-1.75024 0.0986573 6.47762 118 118 110
-1.71441 0.0905458 6.46152 148 145 126
-1.61889 0.0860832 6.80156 160 157 134
-1.25146 0.0811641 6.686 166 170 138
-1.1416 0.0872104 6.65418 122 118 98
-1.52895 0.0921263 6.4995 151 148 128
-1.34846 0.0998898 6.84782 156 154 124
-0.865578 0.0858979 6.11276 132 124 72
-1.55808 0.101488 6.76122 160 160 145
-1.47909 0.0972605 6.85105 98 104 96
-0.862879 0.0851409 6.21379 134 126 70
-0.332133 0.0857775 6.78583 77 62 31
-0.137239 0.0894543 6.96668 114 100 80
-0.0864321 0.0859464 6.8615 128 113 78
0.328177 0.0774136 6.48628 101 90 83
0.362262 0.0737323 6.79739 134 118 105
-1.40582 0.105522 6.78255 134 133 122
-1.61127 0.10724 6.66864 126 124 102
-1.42426 0.109055 6.75058 120 123 114
-1.35514 0.107131 6.83126 141 142 120
-1.26632 0.115278 6.66139 152 147 128
-1.29542 0.11001 6.82905 104 104 98
-0.81808 0.0998594 6.43986 128 107 48
-1.49217 0.110839 6.77131 103 104 89
-0.92023 0.102637 6.28664 140 134 84
-0.638648 0.0936565 6.22 144 123 60
-0.449629 0.103563 6.50334 80 65 14
-0.350737 0.0943389 6.94537 78 64 34
-0.0743267 0.104617 6.66751 120 106 80
-0.432637 0.100153 6.35938 96 76 34
-1.53287 0.127749 6.76855 118 112 100
-0.457439 0.103201 6.36192 128 112 56
-0.16821 0.10629 6.71853 79 68 32
-0.147303 0.10531 6.71111 70 64 40
0.167767 0.106729 6.71576 120 104 86
0.312148 0.0969952 6.45892 92 80 72
-1.11086 0.111802 6.60931 102 98 84
-0.425828 0.111983 6.44194 111 96 38
0.191568 0.101578 6.74569 126 112 88
-1.37504 0.129616 6.63717 150 148 128
-1.39196 0.127344 6.71496 124 122 106
-1.3758 0.131028 6.71558 100 98 87
-1.29857 0.129929 6.66713 112 108 94
-1.06956 0.124229 6.60425 155 158 132
-0.0141379 0.111259 6.75583 96 84 74
0.33976 0.0945331 6.85172 120 106 98
-1.5304 0.128952 6.43986 84 84 86
-1.46916 0.13117 6.71874 148 153 138
-0.370365 0.120728 6.78036 62 51 20
-1.0992 0.132828 6.55654 141 141 115
-0.880136 0.124616 6.43539 79 68 26
-0.665606 0.123849 6.25201 118 106 69
-1.56488 0.143291 6.56203 130 129 115
-1.40953 0.144687 6.69804 188 183 152
-1.31206 0.140012 6.70262 169 168 143
-0.828183 0.129233 6.3139 105 94 52
-1.50514 0.149411 6.69916 162 154 137
-1.26674 0.144117 6.7433 142 138 122
-0.0410581 0.126264 6.59942 106 98 84
0.272812 0.120168 6.36988 116 60 48
-1.71359 0.149127 6.33416 227 210 197
-1.37364 0.145454 6.51723 169 166 142
-1.40649 0.142833 6.54071 168 166 143
-0.302302 0.141619 6.42292 75 58 21
-1.48138 0.160925 6.64672 94 90 84
-1.22435 0.156746 6.69877 156 149 131
-1.10223 0.150783 6.56781 170 168 130
-1.0567 0.151659 6.49885 163 158 110
-0.596743 0.143873 6.40444 138 126 66
-0.111068 0.143834 6.75547 61 48 27
-0.40152 0.149484 6.64117 68 56 20
-0.160442 0.14827 6.68609 55 40 14
-0.10919 0.141971 6.84848 75 65 46
0.316806 0.126507 6.48179 120 107 97
-1.30039 0.158402 6.50615 158 154 122
-0.401254 0.156348 6.56871 68 54 18
-0.204691 0.147696 6.75285 94 76 32
-0.164245 0.150499 6.56763 59 48 19
0.299515 0.140944 6.30556 130 116 105
-1.08102 0.166838 6.51266 156 154 106
-0.540554 0.159886 6.17093 122 113 70
-1.33546 0.179309 6.75012 134 136 126
-0.398518 0.16233 6.63425 89 72 28
-1.44628 0.180354 6.55046 150 148 135
-0.43442 0.168067 6.48514 70 55 19
-0.175947 0.163968 6.51004 68 51 20
-1.27777 0.179656 6.64078 138 138 130
-1.13999 0.174116 6.52979 108 109 102
-0.164591 0.168954 6.5724 40 24 2
0.228501 0.155692 6.21234 60 51 38
-0.0688754 0.170754 6.59307 129 114 72
-1.3841 0.188199 6.56913 158 150 128
-0.494779 0.179784 6.55735 73 61 20
-1.45358 0.194145 6.53753 133 130 115
-1.44411 0.194043 6.54612 133 128 112
-0.498184 0.18365 6.45113 82 70 29
-0.965474 0.190267 6.53928 146 148 108
-0.536579 0.187603 6.50214 93 80 42
-0.518697 0.185689 6.48618 86 74 34
-0.161483 0.180749 6.46695 118 102 48
-0.157305 0.185305 6.56002 85 64 22
0.203714 0.17777 6.32967 104 100 92
-0.815403 0.191618 6.53138 142 142 115
-0.225377 0.184536 6.50779 96 78 33
-1.4542 0.200477 6.4524 128 128 120
-1.04101 0.2002 6.49088 92 92 70
-1.60074 0.211813 6.2325 172 153 134
-1.10559 0.212847 6.57525 89 92 67
-0.792525 0.198396 6.36113 108 105 74
-2.95364 0.23177 6.79209 212 212 214
-1.45785 0.217423 6.54945 168 164 140
-0.77127 0.205897 6.45221 122 118 89
-0.741361 0.205037 6.41507 122 120 100
-0.727242 0.204313 6.40555 132 130 99
0.204836 0.182849 6.66186 119 108 98
-0.209697 0.200795 6.41398 130 110 50
0.213526 0.200337 6.27154 127 118 106
-1.56776 0.215523 6.15342 222 210 192
-1.38892 0.22451 6.52408 166 160 130
-0.601185 0.20847 6.35044 102 101 64
-1.56219 0.221436 6.18924 166 146 134
-0.765485 0.216639 6.43191 138 136 105
-0.758242 0.219801 6.48546 76 78 58
-0.2513 0.207287 6.50139 121 100 40
-1.37893 0.228144 6.40321 139 134 120
-0.868681 0.229322 6.46696 166 158 106
-0.843022 0.230421 6.45384 128 118 74
-0.823997 0.228237 6.4545 92 84 57
-0.824563 0.226784 6.50945 125 116 92
-0.718379 0.225288 6.41191 115 114 90
-0.198408 0.218097 6.47389 88 69 24
-1.48347 0.241133 6.36604 124 125 111
0.118276 0.205223 6.03506 153 86 69
-1.5105 0.232548 6.26226 138 133 114
-1.496 0.243234 6.25521 130 124 106
-1.3723 0.259676 6.65746 170 170 145
-0.75721 0.235335 6.41552 128 129 100
-0.71876 0.235859 6.42374 82 76 52
-0.179503 0.224544 6.35851 116 100 67
-1.51583 0.236484 6.11828 210 212 194
-1.17183 0.251915 6.55055 83 81 61
-1.48066 0.236035 6.07395 156 155 146
-1.50924 0.243452 6.23419 134 130 120
0.956864 0.237118 6.63123 170 160 160
-1.53224 0.252604 6.22369 191 194 186
-0.774968 0.251017 6.40578 74 74 54
-0.237133 0.238574 6.33087 126 112 72
-1.48566 0.252354 6.08067 214 218 206
-0.709973 0.251788 6.32521 113 110 84
0.34766 0.250123 6.48372 121 107 88
-0.69994 0.258942 6.33381 107 104 70
-0.13041 0.248769 6.15402 124 104 65
-1.4715 0.274813 6.2635 130 115 104
-1.13789 0.275541 6.49188 172 169 130
-0.125312 0.258004 6.2369 122 102 62
-0.569535 0.268475 6.39626 152 144 93
-0.0187031 0.240031 5.91773 134 119 77
-0.16519 0.259363 6.18975 144 129 74
-0.160783 0.262491 6.24111 88 72 34
-0.03506 0.242267 5.93847 130 104 66
-0.641941 0.273393 6.30601 148 147 104
-1.2767 0.290123 6.35837 132 132 122
-0.264247 0.267719 6.24541 148 134 77
-0.209039 0.268196 6.23132 140 125 62
-0.628025 0.281961 6.30858 112 100 62
-1.21369 0.309448 6.31879 154 150 130
-0.525181 0.290877 6.24524 160 148 100
-0.221389 0.284243 6.12693 131 122 88
-0.541835 0.299092 6.27897 160 147 98
-0.335446 0.27967 5.89813 162 148 94
-0.407947 0.291424 6.07432 158 148 96
-0.397353 0.291257 6.07797 158 146 94
-0.619306 0.30517 6.32944 166 156 108
-0.488814 0.295738 6.00723 168 158 108
-1.19456 0.313926 6.04959 140 131 113
-1.16815 0.326821 6.23693 128 121 101
-0.561235 0.310057 6.13116 154 140 88
-1.19114 0.30964 5.93238 222 224 203
-0.551848 0.308865 6.05866 166 156 106
-0.531112 0.322622 6.25601 160 140 90
-1.15503 0.314525 5.90685 226 217 194
-1.19779 0.327437 6.04954 220 208 192
-1.08324 0.329048 6.02793 156 150 122
-0.633717 0.327396 6.28824 169 160 111
-0.582621 0.320492 5.98036 144 124 80
-0.574037 0.317224 6.00102 160 150 104
-1.20855 0.358608 6.31829 200 198 178
-1.03203 0.338847 5.95414 144 144 136
-0.983235 0.332826 5.87328 110 110 110
-0.981365 0.335497 5.89655 83 82 82
-0.962871 0.336892 5.87892 136 136 124
-0.948923 0.351469 6.3634 105 97 72
-0.873891 0.333088 5.79384 196 183 149
-0.877666 0.341699 5.88847 172 124 116
-0.870725 0.340643 5.91863 152 98 88
-0.547084 0.334014 5.80477 178 144 117
-0.872614 0.354735 5.91094 196 160 150
1.27909 0.326616 6.00242 188 182 184
-0.702707 0.411961 6.18683 120 115 108
-0.713488 0.42284 6.30316 118 114 105
-2.13361 0.450512 6.21939 212 212 212
0.914291 0.55516 6.16706 188 183 186
-0.362234 0.641769 5.71129 188 184 182
0.123686 0.720759 5.32684 193 184 187
0.831848 0.73515 5.445 185 180 184
-0.0636971 1.0224 6.9139 190 182 184
1.72936 0.687284 5.18987 178 174 175
1.25933 0.760864 5.28502 186 182 184
-0.621842 0.881465 5.59288 194 190 186
-1.48152 0.975756 5.76652 198 194 194
2.15078 0.78436 5.17504 176 171 173
