ply
format ascii 1.0
element vertex 1346
property float x
property float y
property float z
property uchar red
property uchar green
property uchar blue
end_header
-1.40941 -1.51941 9.50461 108 68 56
-3.46209 -1.42627 8.94165 65 20 4
-3.90258 -1.36824 8.66569 170 124 95
-3.86452 -1.34894 8.65452 122 80 58
-4.0537 -1.35665 8.78872 97 64 45
-3.5283 -1.31148 8.86203 86 32 16
-3.41801 -1.30893 8.87098 90 36 19
-3.5152 -1.28214 8.86456 102 40 24
-3.32874 -1.27769 8.92147 86 22 6
-3.95815 -1.22456 8.69476 156 114 88
-3.92617 -1.22085 8.7177 122 80 54
2.22269 -1.31099 9.76537 167 148 105
2.2077 -1.30153 9.84134 122 90 48
3.83671 -1.21592 9.58478 148 128 92
-1.28549 -1.24485 9.58288 136 88 74
2.46674 -1.23721 9.71252 108 80 39
-1.06368 -1.24976 9.75386 35 11 0
-3.92471 -1.10394 8.72934 117 77 58
-1.25483 -1.23852 9.68899 98 54 40
-1.75012 -1.20795 9.66083 216 161 131
-1.03358 -1.22551 9.7998 152 134 98
-1.54751 -1.20638 9.68456 94 46 24
2.19812 -1.15109 9.5215 187 138 112
2.65981 -1.08466 9.19 92 76 60
3.02534 -1.05566 9.01783 114 98 86
2.42516 -1.13357 9.74937 167 145 108
2.76543 -0.943589 8.67694 116 25 19
2.84654 -0.961299 8.81228 129 59 51
3.82487 -1.03951 9.77208 160 134 104
2.74963 -0.885411 8.67629 156 45 44
-1.14827 -1.04321 9.70384 156 105 83
2.62813 -0.935435 9.30781 136 126 102
2.65365 -0.802966 8.64597 160 55 43
-1.25587 -0.866149 9.62507 107 60 44
-1.2162 -0.83655 9.65442 156 108 86
1.95147 -0.767726 9.33949 54 32 16
3.01408 -0.688173 8.75244 144 90 68
-1.11085 -0.808325 9.56821 184 134 112
2.09693 -0.761997 9.40647 164 121 101
1.93887 -0.746751 9.3384 42 22 10
2.76881 -0.669874 8.64153 120 22 2
2.86419 -0.636926 8.60963 163 95 74
-4.2334 -0.751289 9.20834 165 112 88
-4.19049 -0.750514 9.17153 166 110 83
2.69859 -0.622973 8.82608 40 7 2
2.13284 -0.671839 9.4885 130 80 60
2.24907 -0.693676 9.66618 89 61 48
-1.00858 -0.693306 9.67745 46 17 4
2.95581 -0.5536 8.79873 50 16 7
-1.22453 -0.627589 9.63181 172 119 94
2.17372 -0.597812 9.55262 140 96 75
3.33878 -0.500526 8.75863 195 135 108
-1.81881 -0.584446 9.19929 132 85 62
2.1647 -0.563376 9.54241 158 120 100
2.21451 -0.543354 9.64533 56 20 4
2.69246 -0.455611 8.90845 116 98 88
-1.06979 -0.47088 9.78977 103 71 48
2.65054 -0.374305 8.96881 50 27 16
2.00296 -0.405303 9.34032 92 50 36
2.10154 -0.409939 9.54628 52 16 5
1.89822 -0.409301 9.68857 146 112 88
2.76157 -0.271491 8.90166 89 77 78
3.12595 -0.266429 8.84548 98 46 28
1.93246 -0.314003 9.69237 107 67 42
3.16034 -0.239209 8.88107 136 86 66
-2.0592 -0.289387 8.91621 146 100 84
-1.90141 -0.262179 9.09383 72 20 2
3.1658 -0.205846 8.87248 50 10 2
-2.122 -0.250133 8.89369 148 98 82
3.19604 -0.199426 8.86223 79 27 11
-2.13265 -0.220269 8.7691 160 108 92
3.2039 -0.161064 8.87655 163 112 90
2.31903 -0.221478 10.0903 169 152 128
2.5957 -0.162529 8.92534 187 142 118
3.03911 -0.148856 8.78884 126 102 99
3.11818 -0.142277 8.79227 127 86 78
2.5189 -0.150015 8.86687 130 76 50
2.80914 -0.14501 8.8294 170 126 108
2.84518 -0.136283 8.8355 79 46 38
2.65683 -0.209 10.4496 47 32 8
3.04225 -0.119715 8.8062 56 32 30
3.23748 -0.107697 8.90145 80 34 16
-2.09087 -0.153616 8.7902 88 35 19
3.26931 -0.103993 8.90402 187 152 132
2.76799 -0.0955315 8.83435 76 37 22
-4.15345 -0.170334 9.25121 108 76 56
-4.13224 -0.169153 9.3921 46 12 3
-2.64681 -0.130929 8.53898 142 92 78
-4.16022 -0.166426 9.3703 160 134 116
-2.21764 -0.122459 8.76471 178 122 102
2.63687 -0.0807877 8.81239 186 139 118
2.84311 -0.0716797 8.84426 83 45 28
2.89265 -0.0655965 8.81831 152 120 106
3.07921 -0.0585893 8.8399 51 24 18
-2.7839 -0.0651538 8.56478 104 43 22
-2.56164 -0.0442394 8.57148 136 86 72
-2.54994 -0.0430052 8.60484 137 88 73
1.90784 -0.0392811 9.87145 126 100 76
-2.53114 -0.00687273 8.63213 111 66 54
2.07787 0.0149799 9.87659 102 76 59
-3.93839 -0.0196112 9.42273 38 9 0
-3.9874 -0.00186712 9.46728 133 107 90
2.11729 0.0948774 9.91492 35 18 5
3.35473 0.127813 9.3026 46 20 8
3.34826 0.173139 9.32867 108 82 66
1.92117 0.248542 10.1308 122 94 74
3.32919 0.256737 9.32346 34 17 4
1.82975 0.260255 10.1754 128 88 64
2.47515 0.260749 9.28976 118 84 70
2.49983 0.257381 9.19572 132 100 86
2.77353 0.33031 9.0681 44 20 5
2.76501 0.333059 9.10988 72 44 24
2.78286 0.357652 9.06169 178 154 140
2.45677 0.374209 9.26947 38 22 15
2.98646 0.39396 9.21142 97 52 26
3.35722 0.492607 9.30402 112 67 50
2.48914 0.529486 9.57397 100 76 62
3.09445 0.529534 9.27788 123 104 88
2.73149 0.62323 9.25236 176 134 110
-3.79818 0.522222 7.91405 124 30 13
1.86685 0.666057 9.63344 148 86 64
-3.95025 0.582121 7.75862 166 142 111
1.791 0.888198 9.63627 178 76 63
-0.271508 0.780692 8.24212 137 84 67
-0.222511 0.78242 8.24261 123 72 56
1.87107 0.924381 9.64743 116 36 34
2.36007 0.897551 9.1812 118 74 54
2.40627 0.924018 9.2041 192 160 150
1.87244 0.970441 9.62079 168 126 122
3.3079 0.968786 9.01072 138 103 86
1.92785 1.00614 9.55001 150 120 116
2.92281 0.969437 8.97747 174 140 126
3.8512 1.01438 9.41333 138 92 72
2.2139 0.997992 9.17995 132 96 80
3.80268 1.02819 9.35328 138 90 68
2.25516 1.02861 9.22853 184 143 128
3.80986 1.06769 9.35007 170 134 115
1.99351 1.07107 9.50205 168 141 138
2.85552 1.04476 9.00275 165 126 112
3.35183 1.05096 9.02807 110 80 60
3.53371 1.07172 9.11449 155 126 118
3.27405 1.07648 9.07287 138 108 93
3.73771 1.11056 9.24706 184 162 149
3.74185 1.12381 9.24668 168 140 122
2.01477 1.13169 9.48356 117 90 87
3.74005 1.13907 9.30392 82 58 50
3.33175 1.13742 9.07158 146 114 100
-1.8157 1.1679 9.83597 194 141 116
3.52009 1.16522 9.13429 178 127 110
3.56223 1.19482 9.1544 49 20 10
-2.31526 1.25588 9.91459 159 108 84
3.38035 1.24588 9.16178 60 32 20
2.50072 1.28288 9.17057 164 103 89
3.07417 1.27933 9.08061 139 62 56
2.16988 1.31678 9.41466 119 88 82
2.54221 1.29476 9.16726 118 30 28
2.38167 1.31561 9.27187 112 56 52
3.05448 1.30384 9.10077 124 49 40
2.18161 1.337 9.43096 124 92 85
2.55614 1.30245 9.08277 139 98 88
2.62206 1.31414 9.10034 152 129 112
-0.191638 1.15113 7.9029 49 28 19
2.4268 1.32978 9.15693 170 101 103
0.642979 1.26232 8.64087 97 78 62
2.6083 1.36358 9.15738 191 121 94
2.75853 1.36265 9.09642 122 52 50
2.72247 1.37108 9.08539 198 124 100
0.620121 1.31427 8.73898 144 126 114
3.3 1.40931 9.19916 48 32 27
0.404913 1.25482 8.2059 131 113 98
3.35698 1.43573 9.18778 42 28 16
3.33552 1.4528 9.22907 50 38 30
2.72907 1.44116 9.14701 206 146 118
0.690207 1.35207 8.60915 190 174 166
2.54309 1.47189 9.23621 42 15 12
2.66163 1.49134 9.21139 42 16 13
3.3526 1.51331 9.28774 178 149 137
-1.0321 1.37606 8.61372 87 64 53
2.62465 1.50121 9.19931 166 136 129
2.75667 1.49383 9.14007 127 90 86
0.107119 1.32688 8.083 166 107 102
0.533698 1.40066 8.62547 87 72 64
3.23882 1.52505 9.22903 137 109 98
2.74359 1.51788 9.16374 153 121 118
2.66098 1.53294 9.22008 72 51 45
-1.04804 1.39606 8.58184 157 130 118
0.364237 1.36231 8.23942 154 128 116
-0.531195 1.37336 8.0773 200 174 164
0.658623 1.47218 8.68121 108 88 76
-4.11721 1.31049 7.91152 114 50 36
-0.030283 1.40676 8.12687 196 174 170
-0.472928 1.43454 8.06473 200 184 178
-4.26529 1.36782 7.83589 131 71 38
-0.532851 1.45085 8.05604 94 80 74
0.0769453 1.4762 8.09071 80 62 56
0.00424346 1.48992 8.01557 56 37 30
0.143929 1.51585 8.09256 216 202 198
0.00433863 1.51357 8.02911 50 30 24
0.0883347 1.51216 8.0448 74 54 46
-0.46643 1.51433 8.02651 66 46 38
-0.398784 1.51419 8.02509 78 56 50
0.0264892 1.53588 8.03966 55 36 30
-4.29811 1.72742 8.29668 152 95 82
-4.31451 1.78034 8.25671 130 58 33
-0.556338 1.92966 8.59768 222 197 190
-0.456342 1.93864 8.59496 169 155 156
-0.571106 1.99152 8.58239 173 148 142
-0.418614 1.99828 8.58093 128 100 102
-3.98132 2.15466 8.12681 117 52 42
2.24214 -2.75737 9.67972 108 92 60
1.75652 -2.31108 9.02697 144 121 92
2.64384 -1.65676 7.71674 92 66 59
2.10076 -1.66885 8.01881 157 114 94
2.00499 -1.6801 8.13288 151 117 101
2.12551 -1.6118 8.02939 126 92 78
-1.73716 -1.97632 9.46959 108 74 58
1.82465 -1.71251 8.49019 104 90 75
-1.81476 -1.9338 9.47846 90 58 42
-1.57792 -1.90786 9.4527 93 55 40
-1.73915 -1.87479 9.45211 94 52 38
1.80453 -1.78602 9.14147 117 90 64
2.16871 -1.51079 8.07993 129 39 34
-1.62677 -1.83213 9.46355 110 65 48
1.99023 -1.53386 8.31515 123 48 40
1.74528 -1.66816 8.97391 150 122 96
2.68616 -1.38178 7.75777 121 104 98
2.10875 -1.44901 8.15588 137 76 68
-1.61542 -1.7416 9.42639 146 90 67
2.04099 -1.46416 8.26418 131 74 65
1.95794 -1.49521 8.44337 112 76 54
1.93265 -1.47797 8.47162 132 100 83
2.56437 -1.37442 7.971 194 182 174
-1.57865 -1.6971 9.45655 115 68 48
1.96589 -1.46026 8.43453 164 124 97
-3.53952 -1.60248 8.95106 71 43 27
-1.81361 -1.69176 9.43737 86 32 12
2.10788 -1.42091 8.27895 46 21 8
2.48385 -1.35112 7.96835 114 90 80
2.51277 -1.34937 7.96304 236 218 209
2.59244 -1.3501 7.97575 100 78 70
-3.80407 -1.53411 8.68288 148 101 76
2.55717 -1.32403 7.97931 77 51 44
2.54869 -1.31795 7.92661 86 58 51
-3.87256 -1.45348 8.67478 160 114 89
-2.13294 -1.65503 9.7883 63 32 6
-3.85602 -1.44008 8.7063 132 86 66
-3.47211 -1.47168 8.92662 166 110 86
-3.95442 -1.41314 8.71539 155 107 82
-1.40942 -1.52843 9.52075 108 69 58
-3.45982 -1.42862 8.94453 62 22 6
-1.93188 -1.50505 9.4155 100 27 8
-3.69767 -1.39307 8.7838 100 52 34
-3.41839 -1.3113 8.8689 107 52 37
-3.50964 -1.27847 8.83959 95 36 20
-3.92291 -1.21798 8.69099 120 80 54
-3.70508 -1.1906 8.80702 154 95 78
2.47679 -1.27992 9.72273 100 66 28
-1.02104 -1.30996 9.81087 85 69 30
-1.53743 -1.26773 9.64282 120 74 51
-3.69912 -1.14932 8.85956 125 68 52
2.46454 -1.23803 9.72154 96 50 17
-1.07115 -1.24663 9.74872 30 7 1
-1.45524 -1.22225 9.67877 114 64 46
3.66258 -1.1579 9.57019 72 46 35
3.79685 -1.16992 9.68194 118 90 77
-1.55243 -1.21 9.70689 100 52 30
-1.82943 -1.19189 9.65496 178 122 91
-1.69885 -1.20205 9.72234 142 88 58
3.0545 -1.04501 9.0529 116 102 88
2.6329 -1.08673 9.38582 86 83 50
3.00326 -1.01259 9.01683 102 84 72
2.59924 -1.02583 9.37868 128 128 80
2.6741 -1.00302 9.24073 134 119 104
-1.18368 -1.05251 9.67607 142 92 74
-1.1661 -1.03509 9.56053 150 100 82
-2.07455 -1.04801 9.82851 99 69 30
3.8574 -0.965981 9.7906 104 89 66
1.88989 -0.894864 9.35891 96 57 29
2.60117 -0.898708 9.38553 74 72 33
-0.945497 -0.956286 9.72716 124 102 78
-3.68074 -0.884817 9.13824 108 56 38
-0.95889 -0.926844 9.73499 56 28 6
-1.11531 -0.811962 9.53085 180 130 108
2.10052 -0.770769 9.39293 156 106 86
2.77423 -0.676835 8.65339 149 53 27
3.01103 -0.689021 8.74917 134 78 56
1.9349 -0.750938 9.31852 73 50 38
2.05136 -0.760243 9.43482 126 89 71
2.19723 -0.683529 9.56497 156 113 92
2.91806 -0.59395 8.83428 94 24 10
-1.93328 -0.647519 9.38923 127 82 50
-0.987418 -0.671099 9.74799 139 118 96
-4.26683 -0.645054 9.21556 162 134 120
2.73127 -0.527417 8.79675 79 72 74
-1.22389 -0.629397 9.59973 164 111 87
3.26136 -0.498208 8.78346 190 122 89
3.32908 -0.493851 8.74851 189 128 99
2.70819 -0.467158 8.79024 110 98 98
3.21228 -0.443083 8.80024 174 100 73
-4.15646 -0.524757 9.10883 168 113 84
-4.19959 -0.515968 9.12475 190 135 98
2.81759 -0.398186 8.92462 38 34 36
-1.06719 -0.473535 9.77905 98 60 34
2.64802 -0.373064 8.96024 102 76 62
-1.19149 -0.463892 9.87156 27 4 0
2.10259 -0.418878 9.50102 44 10 2
-4.25199 -0.392039 9.23102 174 142 114
-4.2292 -0.378316 9.26182 52 18 6
3.08653 -0.260196 8.77553 72 27 18
-4.14399 -0.336604 9.28535 172 114 94
3.14496 -0.238228 8.85664 128 79 60
-2.09941 -0.248768 8.80368 152 102 86
-1.5406 -0.301743 9.74016 107 62 46
2.52231 -0.285517 10.2828 72 56 34
-2.12991 -0.222331 8.74793 166 114 98
2.82602 -0.169271 8.86893 91 58 50
2.58534 -0.166742 8.90665 178 126 101
2.88593 -0.15815 8.82255 50 28 29
2.94282 -0.149085 8.78428 111 84 85
3.19843 -0.159064 8.87193 124 76 56
2.81182 -0.150445 8.83888 167 122 105
3.03616 -0.119329 8.79323 61 38 37
-2.84711 -0.16146 8.60748 162 103 80
3.23496 -0.112588 8.89931 98 48 28
-2.18496 -0.152951 8.77909 88 37 23
-2.08427 -0.154696 8.73798 86 33 17
2.83465 -0.106173 8.83228 134 88 69
3.2629 -0.101861 8.88445 165 127 105
2.70119 -0.0931489 8.82467 126 79 58
2.72987 -0.0922814 8.826 92 50 39
-4.11763 -0.176488 9.35037 42 12 5
-2.69734 -0.127558 8.60192 151 96 76
2.86436 -0.0812632 8.82176 31 10 5
2.88137 -0.0847897 8.7972 32 10 10
2.7374 -0.0730384 8.82468 78 34 24
2.84089 -0.0742931 8.84783 94 53 34
-2.61933 -0.113924 8.51117 156 106 92
2.69104 -0.0641928 8.90036 82 35 18
2.88865 -0.0575301 8.81769 140 110 100
2.58348 -0.0415515 8.98303 174 130 108
-2.78276 -0.0702506 8.57091 109 50 30
-4.15169 -0.0855485 9.34938 122 96 75
-2.54518 -0.0496261 8.58694 111 62 48
-2.52996 -0.0292091 8.58367 139 90 76
-2.65568 -0.00221157 8.57385 104 52 38
2.03766 0.0275177 9.74494 88 65 50
2.65217 0.0563284 8.92831 200 170 150
3.09 0.0519585 9.02702 82 35 17
-2.52113 0.0111431 8.63248 58 14 4
-2.51712 0.0102081 8.7313 60 16 2
1.9986 0.0358603 9.78911 50 24 9
3.05387 0.0666117 9.03357 87 44 26
2.11314 0.0851339 9.87412 29 16 4
1.90117 0.0975964 9.82439 36 22 8
2.12418 0.0941162 9.9758 64 43 28
-2.07919 0.0961286 9.80585 162 112 88
3.33586 0.172073 9.3077 87 60 42
3.29628 0.202362 9.27654 114 93 74
3.36396 0.229279 9.29387 48 24 11
2.46943 0.246558 9.16239 119 76 56
1.99966 0.268853 9.98316 160 117 93
3.21652 0.288208 9.29897 52 31 18
2.76036 0.325449 9.06403 62 39 22
3.47149 0.345598 9.3246 150 124 100
2.79089 0.379159 9.13255 145 124 108
-4.03428 0.305274 7.76138 164 139 105
3.45259 0.449366 9.2352 77 59 47
2.73799 0.6249 9.28607 166 123 98
1.86357 0.667489 9.63025 150 91 68
-3.96447 0.579544 7.79342 154 124 83
1.76199 0.764864 9.71182 161 112 90
-0.271883 0.779301 8.26648 116 67 48
2.67883 0.855507 8.97951 160 112 87
1.86687 0.926274 9.64546 126 32 30
2.86824 0.950892 9.01534 163 120 100
1.97858 0.992762 9.50597 146 118 111
3.30324 0.966354 9.0084 144 110 94
1.93194 1.00548 9.55909 160 129 123
2.87503 0.995069 9.01395 108 64 40
2.90626 0.99839 8.96729 118 74 54
2.2444 1.05151 9.27976 144 108 96
2.87001 1.04294 9.03933 156 116 100
3.35483 1.05071 9.03501 160 132 112
3.66905 1.08007 9.21939 112 90 80
3.26654 1.07438 9.05698 148 118 105
1.9798 1.11271 9.4735 154 126 126
2.01122 1.12607 9.48196 124 98 94
3.43896 1.10214 9.06007 165 108 88
-0.584304 0.985634 8.12453 54 6 2
3.32047 1.12891 9.04937 146 112 98
-1.81648 1.15952 9.82403 184 130 108
1.82483 1.2141 9.86919 44 24 14
3.59082 1.19824 9.18547 40 16 8
1.84656 1.25716 9.89032 41 20 11
2.48634 1.22202 9.2007 152 114 102
3.77313 1.29619 9.42281 154 132 114
3.47181 1.25204 9.167 73 44 32
2.47436 1.26589 9.22598 182 146 140
3.80721 1.30221 9.43586 62 42 25
2.56142 1.26721 9.20193 144 109 102
2.77108 1.27446 9.08218 119 114 104
3.07323 1.27712 9.08814 151 86 78
2.53358 1.28889 9.15013 126 52 46
2.37954 1.30799 9.25593 144 93 86
3.05564 1.30013 9.09773 134 60 50
-1.71512 1.33396 9.81262 188 134 104
-0.17831 1.15027 7.91113 41 16 7
0.654164 1.27457 8.74749 108 88 72
2.76075 1.36036 9.10845 119 59 53
2.37658 1.38288 9.28476 134 92 90
2.73704 1.37828 9.1384 198 137 104
0.405817 1.25466 8.31364 151 134 119
0.404123 1.27241 8.27346 110 88 74
2.42275 1.44163 9.2912 51 17 13
2.45879 1.45178 9.26807 164 134 130
2.49155 1.46106 9.27211 64 38 31
2.50065 1.48802 9.2881 86 64 56
2.53638 1.4979 9.2625 60 38 33
2.57136 1.49137 9.25378 148 116 112
2.64452 1.47983 9.17394 54 26 21
-1.03486 1.36817 8.62079 87 64 56
-0.378476 1.30417 8.08711 138 98 94
2.61817 1.49703 9.18904 148 114 108
-0.189593 1.29707 7.97906 48 35 19
0.102725 1.31923 8.07399 129 54 48
3.23818 1.52358 9.23394 146 118 108
0.607239 1.42313 8.66586 146 128 116
-1.04956 1.41273 8.64371 157 130 118
2.69244 1.53616 9.17064 46 28 25
-0.528701 1.36315 8.16781 200 172 164
-1.07397 1.44939 8.60805 112 84 74
-0.451893 1.40384 8.1375 96 81 74
-0.618151 1.35615 7.87528 177 118 112
-0.408632 1.38695 8.01542 74 60 55
-0.0320739 1.39855 8.1145 168 148 141
-4.13761 1.32504 7.95373 117 51 38
-0.575591 1.42298 8.08902 178 158 151
3.40588 1.78541 10.0563 202 181 176
-0.478158 1.43758 8.09918 121 104 98
-4.23402 1.36636 7.83412 124 44 18
-0.394991 1.4815 8.02484 68 48 40
-0.471911 1.49527 8.0289 79 58 50
0.143485 1.51158 8.09986 196 182 179
0.00563949 1.51362 8.04049 63 44 38
0.0849054 1.51484 8.06127 55 34 26
-0.427252 1.52128 8.01965 52 30 24
0.0271857 1.53397 8.03976 40 21 15
0.0518703 1.53409 8.03542 36 21 12
-4.24326 1.60794 8.15468 104 39 20
-4.2707 1.72304 8.24832 148 90 79
-4.29732 1.7773 8.21243 118 40 20
-0.451753 1.93779 8.62062 161 136 136
-0.426832 1.98448 8.54101 96 70 71
1.94385 -2.78613 9.44007 94 76 37
2.8487 -1.97236 8.02644 22 16 9
2.34165 -1.82051 7.92668 168 127 106
2.8098 -1.69434 7.71583 201 180 172
2.84985 -1.72621 7.85707 174 154 145
1.90179 -1.78533 8.18141 147 118 102
1.94196 -1.75268 8.17344 146 99 76
2.11069 -1.70349 7.99725 138 100 80
2.82163 -1.65806 7.81414 95 76 66
1.91758 -1.73546 8.19975 117 82 66
2.10427 -1.67127 8.03315 158 114 92
-1.62602 -2.0284 9.44365 91 62 40
1.95063 -1.69612 8.18533 108 64 42
1.99954 -1.67287 8.11535 149 115 98
2.12118 -1.6155 8.03882 122 82 64
1.74767 -1.8529 9.1174 92 86 58
1.83809 -1.67965 8.56441 128 110 98
-2.08903 -1.96646 9.78687 127 117 72
-1.7812 -1.87327 9.43963 58 22 8
-1.73906 -1.87689 9.45292 80 42 29
-1.62618 -1.82884 9.42474 122 76 59
-1.50478 -1.79545 9.44875 116 73 54
2.59844 -1.41142 7.92001 152 124 117
-1.62016 -1.75342 9.45972 152 96 71
2.03748 -1.46315 8.25467 140 85 74
2.11466 -1.45223 8.18647 136 72 62
1.95183 -1.4907 8.43578 110 74 52
1.93337 -1.47608 8.46308 123 89 70
-1.57498 -1.69035 9.43299 92 51 36
-1.43901 -1.69593 9.47231 85 48 34
1.95944 -1.45502 8.40758 171 132 106
2.08782 -1.41621 8.22234 36 12 2
2.51994 -1.35702 7.97351 206 188 177
-3.82269 -1.54418 8.74823 151 102 78
1.89419 -1.46029 8.54808 132 99 78
2.57345 -1.33151 8.01615 113 88 81
-1.89015 -1.6376 9.42308 126 61 40
1.99207 -1.41001 8.42603 146 114 98
-3.87332 -1.45615 8.66889 161 114 90
-3.41302 -1.54403 9.15024 128 90 60
-3.4139 -1.4945 8.97588 47 18 4
-1.48066 -1.58196 9.49734 110 68 54
-3.93946 -1.40681 8.66451 158 108 82
-3.66302 -1.40279 8.71866 82 41 24
-1.40865 -1.53243 9.52948 108 69 58
-1.92732 -1.5073 9.40366 104 28 12
-3.69632 -1.3901 8.78254 114 64 46
-3.40968 -1.31032 8.84904 111 58 38
-1.09284 -1.45177 9.85733 132 120 80
-3.9653 -1.22984 8.78719 122 82 56
-1.02278 -1.31571 9.85136 86 72 32
-3.6839 -1.14835 8.83661 125 67 52
-1.93925 -1.30443 9.93208 78 44 18
-1.55026 -1.26778 9.65804 131 82 56
-1.31915 -1.28251 9.83734 124 76 60
-1.26119 -1.23618 9.65428 120 72 56
-1.01896 -1.22982 9.75881 144 137 92
3.6501 -1.16009 9.53635 60 34 23
-1.76042 -1.20688 9.65329 213 159 128
-1.54361 -1.2107 9.66937 94 47 26
2.19177 -1.15478 9.51675 157 106 80
3.77568 -1.16532 9.69773 70 48 42
-1.81634 -1.20997 9.72714 199 144 114
-1.69224 -1.1958 9.67484 150 98 70
3.69563 -1.12259 9.58025 20 11 4
2.41923 -1.13689 9.73404 138 106 71
2.42497 -1.10106 9.74659 103 67 38
3.83653 -1.04444 9.79358 134 102 74
2.62477 -0.937088 9.31119 136 119 94
-0.966009 -0.984113 9.71864 40 14 3
2.85666 -0.818281 8.69099 152 70 50
2.62381 -0.903839 9.46198 94 92 50
-0.937553 -0.956487 9.72255 135 118 86
-3.69937 -0.856324 9.15363 176 118 90
-3.68113 -0.793998 9.15393 106 50 28
-1.11787 -0.817331 9.57482 180 129 108
2.04446 -0.759234 9.41488 130 94 76
2.90322 -0.655091 8.71954 169 94 68
-4.23858 -0.75126 9.21651 152 103 80
-4.19619 -0.756591 9.21228 160 106 79
2.67135 -0.644869 8.77636 161 100 88
2.68476 -0.615533 8.77715 42 6 1
2.73698 -0.595831 8.76717 146 59 33
-1.01336 -0.700863 9.72201 57 24 6
2.95871 -0.555222 8.81577 44 12 6
-1.92893 -0.644586 9.37566 126 80 49
-0.979258 -0.670175 9.7328 128 104 80
-4.23367 -0.618364 9.19323 58 26 14
-1.85311 -0.607733 9.30158 118 70 44
2.18359 -0.538901 9.50349 98 58 41
2.72065 -0.470799 8.81248 100 88 88
2.68345 -0.454732 8.9107 133 109 95
2.99813 -0.419495 8.74636 74 41 27
-4.33097 -0.489436 9.17069 113 86 58
1.97936 -0.44578 9.57904 149 113 90
2.65467 -0.374116 8.96864 50 27 16
2.76935 -0.358384 8.83401 89 84 86
1.89962 -0.415235 9.71324 138 109 82
-2.72141 -0.346389 8.59792 211 159 118
-4.26956 -0.392634 9.25442 128 96 66
2.71464 -0.281756 9.02534 74 52 44
2.7495 -0.272729 8.87835 44 34 36
3.25446 -0.276408 8.88439 178 142 122
1.92242 -0.320792 9.64158 112 70 44
2.79709 -0.261461 8.89053 22 14 18
3.10498 -0.260988 8.85641 74 32 22
-4.13574 -0.337348 9.25773 159 102 82
3.04668 -0.235048 8.85383 59 32 30
3.16535 -0.239353 8.88328 118 69 50
3.1978 -0.197461 8.86795 80 28 16
2.59658 -0.164766 8.91717 184 135 110
2.76895 -0.162774 8.85616 174 148 136
2.88472 -0.159174 8.81356 44 23 22
3.02002 -0.154892 8.72246 88 62 58
3.24262 -0.116847 8.91707 122 72 50
-4.12789 -0.20063 9.32252 48 13 4
2.87774 -0.0986357 8.77241 38 16 14
3.1246 -0.109227 8.83074 61 28 24
-2.68955 -0.124883 8.54608 96 43 25
-2.66537 -0.129176 8.58318 128 76 59
2.60604 -0.0906434 8.87184 72 25 10
2.76372 -0.0954239 8.83659 88 50 39
-4.15355 -0.167001 9.30932 142 118 99
-2.21281 -0.122504 8.76756 180 122 103
2.681 -0.0755531 8.86099 66 20 4
3.06321 -0.0685103 8.80371 66 44 41
-2.62703 -0.104921 8.54201 158 108 94
2.89151 -0.056253 8.81909 114 87 78
-2.77888 -0.0740955 8.56147 102 42 22
1.86989 -0.0485091 9.82815 159 130 110
-4.14864 -0.0888461 9.34326 132 108 87
-2.55334 -0.0408785 8.5924 154 103 88
-2.64484 -0.00917085 8.55487 124 72 58
2.6514 0.0552816 8.92828 200 170 150
3.07849 0.0637891 9.0688 90 45 26
3.29231 0.199628 9.2622 118 98 79
3.37248 0.212009 9.24138 43 22 6
3.36971 0.215566 9.29351 42 20 8
2.54646 0.25392 9.16631 162 129 106
2.7923 0.286804 9.09125 184 158 143
2.72404 0.300655 9.12273 178 148 126
-3.86372 0.249663 7.93065 110 32 4
2.77534 0.326527 9.07918 52 30 14
1.68971 0.337503 10.2177 152 130 103
2.78497 0.3894 9.17274 105 84 68
1.70053 0.475348 10.1628 174 142 118
1.68207 0.508542 10.1881 115 78 48
2.68312 0.524932 9.44969 96 60 38
3.0664 0.528804 9.19019 122 104 88
2.76303 0.628651 9.31813 174 133 108
1.75826 0.767973 9.7032 162 112 92
1.69558 0.840525 10.0177 103 80 62
1.76358 0.852377 9.73846 120 35 22
-0.273489 0.774068 8.25417 112 61 40
2.66875 0.848023 8.93947 173 124 103
-4.073 0.700127 7.61342 163 120 92
1.8647 0.923813 9.62833 120 36 32
2.25441 0.917594 9.18545 179 144 134
1.93009 0.996262 9.54281 172 142 134
2.95001 0.967904 9.00249 171 140 130
2.77281 1.00606 9.02758 170 138 124
2.9282 1.00466 9.00618 118 73 53
1.99737 1.0663 9.48921 165 138 134
3.52661 1.06148 9.09425 163 142 135
2.96573 1.05176 9.02551 142 106 94
1.99717 1.13248 9.46997 120 93 90
3.44043 1.10756 9.11636 190 156 138
3.33264 1.12772 9.06369 142 108 94
3.50493 1.15587 9.14747 182 142 122
3.67504 1.20676 9.24714 159 139 125
2.49736 1.21971 9.21907 168 133 122
1.84044 1.30181 9.91627 152 128 116
-2.31303 1.25404 9.92763 158 107 83
3.47438 1.25168 9.17176 50 22 8
2.46773 1.26097 9.22897 178 148 140
2.76291 1.26737 9.06615 116 114 104
2.53666 1.28996 9.14285 120 52 46
-0.180123 1.14503 7.88986 38 11 4
3.33302 1.35557 9.07148 201 176 155
2.38648 1.39025 9.31045 122 78 78
2.75641 1.35952 9.09905 122 42 38
0.612365 1.30686 8.73656 147 130 116
-0.292534 1.1937 7.91319 60 42 30
-0.0757134 1.19934 7.9313 80 69 54
2.6108 1.41374 9.15844 190 126 101
3.35849 1.42906 9.20881 46 31 20
2.42119 1.43402 9.28709 56 20 16
2.72676 1.42987 9.14651 192 140 98
-1.13785 1.31126 8.56724 118 91 81
2.45811 1.45289 9.27016 151 120 118
2.49531 1.48079 9.25326 38 16 10
2.65481 1.48324 9.18345 60 28 22
-0.382021 1.30255 8.07209 122 78 72
-0.0574778 1.28268 7.91309 79 44 33
2.29163 1.53992 9.54872 208 188 182
2.62573 1.5003 9.20482 137 104 99
3.2527 1.5252 9.26003 152 124 114
-3.91472 1.47275 9.49295 194 142 114
0.612929 1.42824 8.70254 126 109 98
2.65422 1.5216 9.19063 78 56 50
-1.04076 1.39607 8.58461 132 108 96
2.67851 1.53966 9.19808 25 10 8
2.71711 1.53757 9.19062 34 19 17
0.357172 1.36896 8.23773 154 118 108
2.32873 1.61082 9.64432 176 147 136
0.652887 1.45857 8.65131 101 78 66
-4.12699 1.31521 7.92924 114 41 29
-0.461156 1.38287 8.02482 79 64 58
-0.412282 1.39988 8.11584 89 75 70
-0.369232 1.42725 8.11859 96 82 80
-0.471006 1.42664 8.02274 139 122 116
-0.469333 1.47087 8.01625 70 51 42
0.0114445 1.50979 8.04527 40 20 12
0.146412 1.52023 8.12036 196 182 179
-0.447385 1.51727 8.02612 42 22 14
0.0532624 1.53744 8.07376 36 21 12
-4.25222 1.72027 8.21334 149 92 80
-0.165141 1.95825 8.75841 100 21 16
-0.557726 1.92876 8.59935 204 170 164
-0.578558 2.12933 8.65234 140 107 100
-0.538718 2.14738 8.6247 108 79 73
2.84648 -1.97037 8.00735 18 10 6
1.89858 -1.79112 8.19228 150 117 97
2.12237 -1.70848 8.02601 132 91 71
-1.62562 -2.03404 9.46707 92 63 42
1.95373 -1.6973 8.19247 110 66 44
1.95848 -1.68281 8.14086 114 75 52
2.11798 -1.62098 8.0451 122 80 61
1.82164 -1.71367 8.50447 100 87 73
-1.57604 -1.91766 9.46937 100 62 44
1.73632 -1.77354 9.14908 98 81 45
1.99554 -1.52923 8.31058 116 24 18
-1.50636 -1.80016 9.44987 104 63 44
-1.62698 -1.75844 9.45757 152 94 70
2.03929 -1.46633 8.26101 140 85 74
2.1303 -1.45818 8.21069 142 79 70
1.94942 -1.49258 8.44581 126 91 68
-3.86444 -1.57035 8.70899 116 76 50
-3.81798 -1.54765 8.64525 146 102 76
-2.05534 -1.76199 9.71804 156 107 81
-1.81357 -1.69423 9.43951 95 40 20
-1.43672 -1.69396 9.45523 98 59 44
2.087 -1.41657 8.21785 34 10 1
-1.57708 -1.68186 9.42801 142 86 64
2.48221 -1.34962 7.95997 113 90 79
2.56178 -1.33731 7.90107 99 76 68
-1.99731 -1.69337 9.55654 92 39 22
1.92804 -1.45202 8.51816 154 127 112
2.69352 -1.30331 7.86516 150 130 124
-3.92787 -1.50116 8.69237 140 96 72
-3.46468 -1.59176 9.15692 140 100 73
-3.57393 -1.49639 8.73982 91 55 40
-3.86752 -1.4524 8.67069 155 108 86
-3.39298 -1.5239 9.08803 140 100 70
-3.46318 -1.48311 8.93461 168 112 87
-3.42459 -1.48881 8.98943 58 27 14
-3.66633 -1.40469 8.73631 100 56 38
-1.40475 -1.53481 9.52346 101 62 52
-4.06596 -1.36585 8.77478 125 82 61
-4.05181 -1.30635 8.72134 56 22 10
-3.51521 -1.28805 8.84807 81 27 10
-3.3382 -1.28108 8.96109 86 22 6
-3.98338 -1.234 8.78662 152 108 85
2.23146 -1.32566 9.76555 162 150 104
-3.72807 -1.20413 8.85221 141 85 69
-1.01778 -1.30342 9.77246 86 72 30
-1.55733 -1.27192 9.66778 128 79 54
-3.69419 -1.14525 8.86071 132 74 58
-1.07328 -1.25286 9.77294 35 12 3
-3.96386 -1.11573 8.7999 111 72 52
-1.4592 -1.22184 9.67992 101 52 36
-1.01531 -1.2326 9.7658 140 132 88
-1.54412 -1.21021 9.6872 90 42 22
3.77953 -1.16522 9.70218 59 38 33
-3.36519 -1.09435 9.31192 50 14 4
-0.991537 -1.07275 9.66522 138 92 65
-3.29569 -0.978224 9.27166 54 17 5
-0.962813 -0.99084 9.73753 49 20 8
-0.931626 -0.959773 9.73132 118 102 68
2.62069 -0.90228 9.41066 75 74 38
-3.6964 -0.857194 9.18124 188 129 100
-1.22155 -0.842358 9.60589 131 84 64
-3.68638 -0.794769 9.14475 105 48 28
-1.11908 -0.815967 9.54433 166 116 93
1.9661 -0.75904 9.41558 56 34 22
2.84576 -0.642714 8.5978 169 94 68
2.67912 -0.650483 8.81088 160 115 102
1.91533 -0.70747 9.31639 164 132 115
-1.89149 -0.722857 9.36409 144 95 65
2.68886 -0.615211 8.794 73 36 30
-4.23389 -0.668316 9.21593 62 22 8
-0.970967 -0.666833 9.76804 144 124 98
2.94884 -0.547937 8.78408 34 5 0
-1.22509 -0.631268 9.63872 150 98 76
2.73636 -0.523002 8.80369 102 95 97
2.20859 -0.539089 9.65854 90 54 36
2.98434 -0.456334 8.78148 86 50 36
2.67529 -0.442475 8.89331 140 114 97
1.97778 -0.449123 9.56875 164 130 109
2.98651 -0.371763 8.71614 38 19 14
2.65219 -0.37468 8.9425 52 32 23
-4.23494 -0.433444 9.12742 90 48 21
-1.12538 -0.453429 9.90626 164 147 121
-3.95909 -0.407147 9.22437 96 50 36
-4.27941 -0.391856 9.26139 174 144 113
-2.74123 -0.303748 8.556 218 162 120
-1.15755 -0.367547 9.9045 88 59 31
2.70489 -0.281292 9.01238 82 58 48
3.25831 -0.271092 8.87861 179 144 124
-4.12712 -0.337995 9.23392 152 94 75
3.20593 -0.239936 8.93809 140 82 58
-4.27301 -0.295398 9.21046 138 114 88
2.66265 -0.300287 10.4441 64 44 20
3.18512 -0.197483 8.84441 88 32 16
-1.89154 -0.252978 9.08713 74 22 4
2.60432 -0.163776 8.92456 184 138 113
2.84929 -0.163761 8.81401 40 16 11
-2.83627 -0.148096 8.58789 168 108 85
-4.11805 -0.173634 9.34193 41 11 2
2.63209 -0.0897731 8.93342 68 22 8
2.76451 -0.0899213 8.84752 80 42 30
2.86989 -0.0919832 8.82299 34 14 9
-4.1669 -0.160082 9.33494 142 118 99
2.68965 -0.0752867 8.87431 82 34 18
3.06553 -0.0658538 8.80157 50 26 22
-2.78426 -0.0782211 8.58017 118 59 40
3.18185 -0.00583994 9.0205 170 138 121
2.00047 -0.00928392 9.79358 162 130 105
-2.63702 -0.0145083 8.54368 104 54 42
-4.09213 -0.0133425 9.41151 92 52 30
-4.01197 0.00089511 9.50449 74 44 28
3.00369 0.0890015 9.21446 100 63 39
2.11351 0.0799812 9.85073 28 16 4
2.01958 0.107387 10.0181 102 68 34
2.5618 0.251072 9.21138 156 122 99
3.25973 0.28595 9.35068 20 8 4
2.81305 0.284347 9.08676 68 48 38
2.78387 0.320599 9.08577 84 62 48
2.83961 0.324898 9.07058 167 146 133
2.78888 0.397199 9.19233 47 28 12
2.92637 0.426243 9.25476 32 23 18
2.75534 0.484571 9.34909 109 78 59
2.68022 0.528245 9.42394 94 58 34
3.06603 0.533223 9.20084 123 104 88
3.38265 0.561716 9.37344 175 156 142
2.70492 0.632342 9.37194 111 64 32
1.67324 0.703314 10.4907 106 92 70
1.75485 0.765518 9.69051 162 112 92
1.74221 0.856136 9.67634 124 46 34
-0.273715 0.777268 8.27669 132 80 61
1.87109 0.929569 9.67667 132 32 30
2.25413 0.924083 9.18303 180 146 137
2.42809 0.930596 9.26273 186 155 146
1.88015 0.964874 9.61355 172 132 126
2.81684 0.964962 9.10249 133 87 66
1.93131 0.99978 9.5507 169 139 132
2.95948 0.970956 9.00386 180 152 144
2.86844 0.984886 8.97686 108 62 40
2.77529 1.01444 9.09298 176 144 132
2.9096 1.00054 8.98079 118 73 53
2.00068 1.06603 9.48985 167 140 136
2.87068 1.03489 9.01242 165 126 112
2.33349 1.08977 9.40545 129 91 76
2.31706 1.06561 9.21268 133 90 76
2.80788 1.05495 9.02952 130 88 64
2.96414 1.05391 9.02172 143 108 98
3.30168 1.08531 9.12252 144 114 100
2.92532 1.10427 9.0393 134 94 80
3.31771 1.12184 9.03858 148 114 98
1.83214 1.24072 9.85428 40 20 12
1.8787 1.22811 9.77201 136 126 116
3.48484 1.25501 9.19697 50 22 8
2.4674 1.26087 9.23915 182 153 146
2.43736 1.27735 9.25874 176 130 128
2.40966 1.29955 9.28943 151 104 100
2.17412 1.32425 9.41613 121 90 84
2.54553 1.29678 9.17605 116 31 28
-0.178267 1.14699 7.90416 43 16 8
0.644367 1.26925 8.65419 91 70 56
2.75062 1.3616 9.08513 128 47 40
0.583668 1.2848 8.5746 148 131 116
2.72258 1.3847 9.12743 194 141 98
-0.0782388 1.20179 7.93044 70 54 40
2.6195 1.41133 9.16612 195 140 108
3.36457 1.43209 9.23556 33 21 12
2.72941 1.43901 9.1772 192 144 102
2.46352 1.45718 9.2801 168 140 137
3.34983 1.49406 9.29381 179 154 143
-1.11444 1.34642 8.57786 184 165 160
2.51545 1.48524 9.25895 31 14 10
-1.05905 1.35321 8.49918 86 58 52
-0.0479793 1.29299 7.98876 80 44 33
2.60123 1.49934 9.22334 163 132 126
2.6552 1.49076 9.17002 37 15 14
-0.18927 1.29903 7.97383 65 50 36
2.71113 1.53631 9.18254 30 16 16
0.659182 1.45767 8.68382 104 80 70
-1.07382 1.43959 8.60063 104 76 65
-0.627206 1.39467 8.11163 164 85 78
-0.138433 1.43279 8.14386 144 68 62
-0.473836 1.44119 8.07268 172 156 150
-0.00900434 1.4628 8.05782 148 132 126
0.0551091 1.47724 8.05535 44 30 23
0.0203296 1.51818 8.11429 45 26 19
-4.23723 1.60738 8.13007 112 42 22
0.299023 1.82634 8.37561 140 38 33
-0.554948 1.93786 8.63869 173 132 126
-4.32337 1.79227 8.25058 131 64 30
-0.414522 1.97608 8.6731 68 44 45
-0.567352 1.99935 8.60955 152 124 118
-0.425086 2.00274 8.62077 124 100 100
-0.62714 2.1204 8.64897 97 66 58
2.32545 -1.80563 7.888 178 137 118
2.60281 -1.71598 7.69046 169 143 133
2.68282 -1.76917 8.03249 198 178 164
1.92831 -1.73932 8.22058 116 81 65
2.1274 -1.69362 8.0343 151 118 104
2.01175 -1.68101 8.17739 148 116 100
-1.74844 -1.99021 9.47748 88 57 42
1.81697 -1.70659 8.50219 97 88 74
-1.89248 -1.89857 9.4886 149 96 78
-1.83708 -1.90221 9.54792 64 26 10
1.91622 -1.61201 8.39769 129 102 90
1.74012 -1.77739 9.18321 112 98 58
1.8341 -1.64328 8.58649 84 68 60
1.7673 -1.69541 9.01085 145 116 92
2.1454 -1.49895 8.07207 128 18 14
-1.50826 -1.80728 9.47685 103 60 43
2.00154 -1.52859 8.31976 120 32 26
-1.63736 -1.76892 9.45791 160 102 76
1.92622 -1.48558 8.41814 146 112 93
2.08884 -1.42731 8.23639 34 12 7
-3.53811 -1.59997 8.94309 83 52 34
-1.5832 -1.68877 9.47341 132 80 60
2.53224 -1.36647 8.01798 164 141 134
2.57925 -1.33002 8.02068 83 60 52
2.74901 -1.32699 7.99615 155 136 128
-3.94455 -1.50799 8.7218 136 90 66
-1.49396 -1.58093 9.47744 128 82 66
-1.92759 -1.53374 9.41973 121 46 25
-3.45273 -1.44429 8.96513 54 18 4
2.27623 -1.25714 8.20661 148 114 96
-4.00987 -1.38191 8.71551 62 28 14
-3.43955 -1.34669 8.80019 174 115 94
-4.04461 -1.3088 8.71288 54 21 10
-1.08911 -1.4513 9.88156 132 122 80
-3.3417 -1.27846 8.96573 94 29 11
-3.70288 -1.22458 8.8311 172 109 88
-3.60228 -1.22071 8.84139 68 23 15
-1.02717 -1.34552 9.78639 86 74 34
-1.93137 -1.30912 9.8969 62 29 7
-1.57124 -1.27047 9.64028 130 81 56
-3.71387 -1.12799 8.88544 136 76 58
-1.46351 -1.2196 9.71833 114 64 46
2.65616 -1.08237 9.22993 111 102 84
2.4325 -1.15089 9.77906 125 94 56
-0.892797 -1.11267 9.70913 92 74 33
2.68941 -1.0316 9.29313 117 106 90
-1.00483 -1.07485 9.68462 136 90 63
-0.891718 -1.07727 9.72307 86 68 30
2.7017 -0.956408 9.14948 100 96 80
-0.897556 -1.0304 9.66518 84 60 24
1.85981 -0.90679 9.37208 98 64 31
2.8053 -0.779516 8.58691 166 87 66
-0.993759 -0.933417 9.67447 36 14 4
2.68157 -0.811971 9.33956 150 130 116
-1.13103 -0.819088 9.57275 155 106 83
-3.41367 -0.768335 9.22779 154 108 86
1.8723 -0.692145 9.33875 172 140 119
-1.79994 -0.686171 9.3402 140 88 62
2.74457 -0.598987 8.77917 144 54 32
-4.23075 -0.667117 9.20505 64 24 10
-4.2739 -0.644829 9.14915 157 143 122
-1.92812 -0.641353 9.38098 118 73 42
-0.976336 -0.668586 9.73794 149 130 104
2.71852 -0.468132 8.8244 96 86 86
-4.15683 -0.527859 9.10122 162 106 74
-4.24683 -0.510804 9.14725 177 130 100
1.90755 -0.478756 9.76635 98 76 42
2.2835 -0.465834 9.84902 88 55 32
-1.07377 -0.478493 9.77922 98 55 28
2.64707 -0.37875 8.94282 72 50 40
2.79506 -0.363999 8.90546 92 86 88
-4.2415 -0.434677 9.16062 94 51 24
-1.90985 -0.40163 9.08801 144 92 62
-3.97531 -0.406295 9.23692 100 54 35
3.04807 -0.308162 8.87702 123 80 70
-4.28511 -0.388543 9.25345 166 144 115
-4.22618 -0.384391 9.27391 54 22 12
2.9965 -0.295536 8.88937 24 14 13
2.66986 -0.281148 8.9467 86 62 50
3.2523 -0.274674 8.88606 173 129 110
-3.18893 -0.329836 9.00253 110 72 46
-2.08951 -0.297289 8.82098 79 34 16
-1.1916 -0.37316 10.1099 90 55 26
2.67212 -0.233556 8.83855 131 104 94
3.16497 -0.241202 8.90481 110 62 46
-1.51268 -0.313218 9.64739 95 48 32
-4.29307 -0.300514 9.26728 135 114 88
2.68455 -0.278829 10.3696 110 99 80
3.17768 -0.198014 8.87072 72 24 14
-1.88084 -0.240032 9.04021 74 22 6
-4.28822 -0.265215 9.26235 142 120 94
2.61417 -0.180061 8.93097 181 136 110
2.84617 -0.158105 8.81085 43 16 12
2.24206 -0.219699 9.99071 98 66 40
2.77964 -0.159301 8.91401 177 152 140
-4.26857 -0.218593 9.28657 117 86 62
-2.11349 -0.159349 8.80584 82 30 15
2.67283 -0.121281 8.9482 184 148 126
-2.84761 -0.141354 8.61565 176 114 92
2.86489 -0.0955644 8.83728 42 16 9
2.59161 -0.089982 8.92787 58 14 2
2.70855 -0.0727637 8.92947 84 38 18
2.74693 -0.0844158 8.85449 91 51 36
-2.641 -0.101368 8.53493 170 114 100
-2.79441 -0.0904234 8.61544 108 52 34
-4.15997 -0.094771 9.37529 148 128 105
-1.95066 -0.0783549 9.30674 109 59 42
2.85054 -0.0111193 9.00983 180 153 140
1.9959 -0.0184743 9.79463 164 132 108
-2.63969 -0.0197064 8.57071 134 82 69
2.7355 0.164128 9.01013 152 126 110
3.30997 0.194191 9.11684 46 27 18
3.27988 0.261743 9.29992 15 14 12
3.23151 0.281665 9.30003 20 10 4
2.72007 0.303281 9.06428 180 150 128
2.83031 0.329797 9.0859 171 150 138
2.98625 0.383342 9.24479 68 34 18
2.88822 0.417996 9.19252 24 19 16
3.32096 0.459821 9.27527 104 60 38
2.7134 0.518062 9.294 148 116 96
3.05432 0.534713 9.1937 121 102 86
3.37194 0.563929 9.38675 181 158 146
2.6865 0.635461 9.3456 106 60 34
1.85292 0.689407 9.64565 160 93 68
-0.222374 0.623548 8.36719 88 62 42
2.68145 0.746273 8.97505 112 69 44
2.67954 0.841701 8.98465 136 88 62
1.83261 0.91678 9.6416 138 26 18
2.22069 0.913694 9.15697 178 148 140
1.88542 0.973787 9.64924 163 109 108
3.26291 0.96234 8.97893 144 112 98
1.97223 1.01267 9.53223 101 74 72
2.97013 0.974631 9.05141 178 152 144
2.21656 1.01832 9.24132 148 113 102
2.75667 1.01756 9.09036 174 142 129
2.28299 1.07509 9.34025 122 84 70
2.32412 1.07405 9.30961 136 94 78
2.95479 1.05423 9.03014 150 110 93
2.81759 1.07697 9.07569 149 114 96
1.83874 1.23944 9.90654 40 19 11
2.41603 1.21345 9.64435 212 192 185
2.50842 1.22474 9.24006 146 106 92
2.46062 1.26321 9.25424 180 154 147
-0.793457 1.1644 8.58184 157 96 86
2.17299 1.32833 9.45369 152 122 115
2.40709 1.30925 9.32495 160 112 106
-0.0406787 1.2166 8.04053 94 84 68
0.566626 1.29075 8.6264 153 136 120
-1.0423 1.28445 8.62448 162 134 122
3.3028 1.41583 9.19731 61 44 39
2.4067 1.4273 9.29865 116 82 78
3.3306 1.48957 9.28343 178 154 144
-0.386933 1.30075 8.05271 128 96 91
-0.192758 1.29904 7.97627 58 41 28
2.59616 1.5126 9.27226 176 148 144
0.109083 1.34043 8.119 156 124 123
2.67824 1.52406 9.17301 29 16 16
0.648348 1.44854 8.64772 105 80 68
-0.294461 1.39491 8.10888 139 117 112
-0.145296 1.43631 8.1226 142 51 46
-0.478706 1.43571 8.05114 151 134 128
-0.455371 1.49583 8.0569 46 26 18
-4.25751 1.72304 8.22463 164 124 109
0.293511 1.82913 8.40207 153 31 27
-0.741273 1.88579 8.54592 103 64 54
-0.558193 1.93977 8.62206 222 197 190
-0.464503 1.93555 8.6139 126 98 98
-0.410124 1.95428 8.61264 66 38 43
-0.577762 1.99167 8.58075 161 134 127
-0.43261 1.99121 8.55918 89 62 62
-0.512237 2.15706 8.64306 92 59 52
2.3085 -1.81727 7.88638 142 98 74
2.05657 -1.83629 8.14498 112 10 5
2.50439 -1.65791 7.68817 163 134 121
1.89482 -1.80578 8.25324 150 122 106
2.12195 -1.68657 8.0296 136 100 83
1.93411 -1.71031 8.17539 112 65 42
2.11979 -1.63496 8.09977 121 74 50
1.91161 -1.61486 8.39835 128 100 88
2.1471 -1.50278 8.10738 128 24 20
1.78466 -1.63533 9.02502 96 64 30
2.08563 -1.44382 8.14714 146 85 75
-1.80847 -1.69063 9.37846 97 43 23
-1.4324 -1.70511 9.50679 114 72 56
-3.54754 -1.58974 8.94421 106 70 50
-1.59549 -1.67777 9.4779 146 88 66
-2.01823 -1.69562 9.61351 67 24 6
-3.94415 -1.50505 8.73331 138 92 68
-1.39671 -1.5608 9.54054 106 66 52
-3.6806 -1.41118 8.76952 106 58 38
-4.07092 -1.37836 8.73173 112 71 51
-1.87814 -1.45283 9.43902 191 126 104
-4.05588 -1.31381 8.76881 51 21 10
-3.53053 -1.28856 8.83748 76 25 12
-4.0206 -1.24679 8.85308 152 108 85
-3.70313 -1.24064 8.82919 173 112 91
-1.04291 -1.33469 9.73204 82 62 26
2.43699 -1.25978 9.65533 104 58 26
-1.58052 -1.26287 9.60242 128 78 56
-3.70656 -1.12114 8.86946 146 86 68
-1.09687 -1.24618 9.76158 22 6 0
-1.78625 -1.22232 9.74164 180 124 96
-1.55691 -1.21502 9.73149 92 46 25
-1.87639 -1.17491 9.72006 130 80 47
-0.92843 -1.15853 9.70382 90 70 23
3.02337 -1.03303 9.0534 98 84 69
-3.38711 -1.08812 9.35939 54 16 4
-0.906583 -1.1131 9.72555 90 68 29
-1.01637 -1.0841 9.7029 132 87 60
-3.71891 -0.994501 8.96518 143 86 68
-3.68526 -0.965031 9.00795 151 90 70
-3.32322 -0.996611 9.29893 50 16 7
2.78191 -0.853909 8.63029 124 12 8
2.69866 -0.907684 9.26833 132 115 102
-0.998442 -0.978606 9.71488 32 12 6
-4.26281 -0.900263 9.18954 122 115 76
-3.69556 -0.865147 9.17559 184 124 96
2.42418 -0.844857 9.69436 66 38 15
2.67408 -0.803887 9.31427 152 126 113
-4.22335 -0.827089 9.17688 76 39 24
-3.71005 -0.788914 9.16636 106 49 30
-3.40018 -0.767777 9.20316 156 108 88
-1.82282 -0.698981 9.31092 138 86 64
2.67464 -0.607657 8.78729 30 8 4
-4.22986 -0.672718 9.19447 78 36 18
-4.29094 -0.646491 9.16766 157 144 124
-1.04776 -0.676982 9.75089 30 8 2
-4.23454 -0.627812 9.21505 61 32 21
2.69769 -0.473552 8.7767 26 16 15
2.67477 -0.444684 8.95961 149 120 102
-4.25449 -0.517451 9.21675 192 144 114
3.01209 -0.415524 8.82591 31 15 8
1.99485 -0.460692 9.66966 138 102 78
-2.47652 -0.410795 8.5271 105 70 34
2.12508 -0.420479 9.63102 64 26 16
3.06005 -0.305403 8.9205 123 80 70
-4.29093 -0.386369 9.23763 163 140 113
2.66642 -0.291219 8.94303 96 72 64
2.97723 -0.289773 8.87741 11 8 8
-1.45811 -0.363877 9.69884 62 21 13
1.92316 -0.316339 9.61192 114 74 46
3.03976 -0.221578 8.84558 54 28 27
-4.29893 -0.285071 9.29 120 96 70
-1.32421 -0.266555 10.0704 108 66 47
2.76706 -0.158205 8.91288 178 152 138
-4.12115 -0.204277 9.17303 88 43 22
-4.07731 -0.18148 9.22761 35 7 2
-2.84013 -0.141743 8.57434 178 116 94
2.86375 -0.0939375 8.85146 70 40 33
-1.9559 -0.0730441 9.31654 102 52 35
2.79147 -0.00225289 8.9204 181 156 140
2.03676 -0.0179094 9.72797 162 128 108
-2.57894 0.0481518 8.63304 124 72 58
1.8829 0.0941828 9.9314 20 10 4
2.72982 0.166561 8.99259 161 136 117
3.258 0.190729 9.40443 62 38 26
2.5745 0.284365 9.39696 46 18 6
1.72546 0.472741 10.1069 163 134 120
1.72921 0.824789 9.87117 172 142 127
2.59514 0.775577 9.05364 136 100 82
2.65361 0.837958 8.88532 140 90 64
1.82726 0.91269 9.6231 138 26 18
2.22974 0.911515 9.20826 179 150 141
2.83667 0.896597 9.05227 98 56 32
-0.821581 0.886067 9.08245 158 104 82
2.97705 0.965107 9.02344 174 148 140
1.95806 1.0169 9.50365 100 72 72
2.76253 1.02583 9.12895 182 152 140
2.30892 1.05007 9.20346 137 94 78
2.96057 1.06212 9.07041 149 108 90
2.81781 1.08241 9.0843 152 120 104
1.98526 1.13829 9.50788 102 76 76
2.9139 1.1073 9.06904 134 94 78
2.45381 1.2661 9.25188 180 150 144
0.404566 1.22362 8.3166 153 136 120
-0.0407432 1.19798 7.91568 96 86 70
-0.307914 1.22238 8.0871 88 56 44
2.39075 1.41954 9.26435 123 81 81
3.32377 1.42962 9.23268 40 26 22
-2.98376 1.43479 9.57751 138 88 67
2.51295 1.48278 9.27529 32 12 6
-1.12033 1.34637 8.55553 130 109 100
-0.0365715 1.29313 8.07384 96 65 50
-0.198912 1.29828 7.97058 81 68 56
2.64334 1.54748 9.41668 174 147 143
-3.907 1.46188 9.40537 200 148 118
0.106404 1.33165 8.0853 158 122 121
0.344654 1.37792 8.1912 158 124 114
-1.09689 1.44814 8.68695 121 98 90
-0.302652 1.39733 8.1063 136 116 112
-0.409356 1.39365 8.02131 96 84 82
-0.298672 1.42909 8.04271 144 118 118
0.0256737 1.51724 8.05641 36 18 10
0.273453 1.81124 8.35925 160 31 28
-0.764904 1.92255 8.70744 123 86 76
-0.447545 2.00525 8.58362 108 84 84
1.91225 -2.05333 8.41327 148 126 104
2.05782 -1.85026 8.17173 112 10 6
1.77659 -1.78643 8.82263 96 88 69
1.81836 -1.68734 8.69364 82 71 62
2.14974 -1.51093 8.14122 126 40 34
2.16926 -1.47521 8.3158 160 112 100
-1.42782 -1.70985 9.52311 124 78 61
-1.5702 -1.67117 9.49781 138 86 65
-3.49404 -1.57541 9.03667 161 109 81
-2.12145 -1.69756 9.77169 46 22 10
-1.5186 -1.59532 9.5156 134 86 68
-3.66869 -1.40588 8.75827 95 52 34
-3.45 -1.45297 8.96281 48 12 2
-1.9456 -1.52737 9.41962 146 72 48
-1.51522 -1.49629 9.53083 134 82 62
-1.91038 -1.48477 9.62979 186 122 100
-1.10039 -1.46768 9.91704 114 102 62
-3.34076 -1.27929 8.96085 107 42 25
-1.56614 -1.36663 9.6833 36 6 0
-2.02521 -1.32396 9.89451 146 141 92
2.25776 -1.27286 9.92336 109 70 29
-1.10414 -1.26428 9.88252 24 6 0
-1.01685 -1.25457 9.82589 118 107 66
-1.77734 -1.21954 9.69522 204 149 119
-3.38329 -1.08054 9.32208 58 23 10
-1.0294 -1.08804 9.7306 135 88 60
-3.68129 -0.979025 9.00357 168 102 77
-1.18581 -1.05371 9.68454 136 86 68
-1.30396 -0.973554 9.67571 64 22 12
1.84653 -0.910516 9.36732 108 80 40
-3.73558 -0.783989 9.20843 102 44 26
-4.22222 -0.758964 9.25646 163 108 82
2.67676 -0.600697 8.8071 27 10 6
-4.29352 -0.653762 9.1489 158 143 123
2.86382 -0.487264 9.20165 64 54 54
-4.23556 -0.535769 9.24127 159 104 72
1.96212 -0.412593 9.75774 102 57 31
1.94613 -0.325142 9.70879 110 70 44
2.76176 -0.164486 8.92944 178 152 137
-4.27262 -0.221316 9.28154 128 102 80
2.22303 -0.198726 10.0272 113 79 58
2.89481 -0.109086 8.91279 60 30 22
-2.84111 -0.133238 8.54489 176 114 90
2.75949 -0.0832544 9.00063 119 71 53
-2.77133 -0.106289 8.56026 77 26 13
1.95292 -0.0735134 9.92912 110 85 57
2.74775 -0.000825906 8.83378 182 156 139
-3.19578 -0.0367268 8.69038 150 96 70
2.72276 0.160073 8.97987 146 120 106
-2.07987 0.112425 9.85028 184 134 108
2.57032 0.236676 9.34684 164 121 96
2.74758 0.260424 9.19467 184 154 132
2.54797 0.282399 9.37226 44 20 10
2.64245 0.612174 9.30373 101 58 34
1.69104 0.902076 10.0316 69 48 30
2.7058 0.860778 9.1159 133 86 62
2.81116 0.887039 8.99534 102 60 40
2.99368 0.968541 9.06525 166 136 127
1.96103 1.01831 9.52752 102 74 72
2.7483 1.0179 9.09369 174 146 133
2.80952 1.07397 9.05337 152 120 102
1.97969 1.13153 9.4965 113 86 86
1.8485 1.22275 9.71858 148 130 122
2.48926 1.21478 9.21505 178 146 134
2.17031 1.32472 9.46172 152 122 115
-0.193956 1.13751 7.88239 42 13 6
-0.257639 1.19868 8.21704 80 58 48
2.59873 1.36313 9.26893 135 21 22
-0.0522799 1.18454 7.9208 93 85 70
2.38851 1.41935 9.28406 126 87 86
2.66849 1.41364 9.24261 190 147 93
-2.97279 1.43326 9.55771 140 90 69
2.4988 1.47256 9.31027 32 13 8
-3.16269 1.45033 9.48862 64 28 15
-3.93142 1.45214 9.37886 180 128 100
0.0884578 1.32155 8.06286 144 103 98
2.57723 1.51956 9.22376 174 147 142
2.67727 1.5235 9.19611 32 20 20
-0.636415 1.39979 8.14273 162 68 63
-0.137056 1.43288 8.14623 152 88 82
0.193017 1.45693 8.10629 144 120 120
-0.462281 2.00951 8.64392 90 67 66
1.87845 -1.79792 8.22761 150 122 110
1.93526 -1.72774 8.19185 120 74 51
2.0018 -1.682 8.13252 131 93 74
1.78017 -1.66958 8.59126 84 74 64
2.09378 -1.4837 7.99248 124 36 28
-1.79898 -1.70047 9.41816 106 52 29
-3.52151 -1.578 8.83493 52 26 8
-1.56869 -1.65776 9.47941 148 90 70
-3.4438 -1.46706 8.94624 126 80 60
-1.93427 -1.5231 9.36458 121 46 25
-4.01723 -1.4116 8.92542 166 118 94
-4.03303 -1.37504 8.82639 49 19 8
-3.70341 -1.36698 8.78651 80 32 18
-1.87413 -1.47377 9.45718 190 128 106
-1.53014 -1.49261 9.54093 133 82 62
-3.68179 -1.27107 8.77207 172 113 92
-3.55288 -1.27924 8.82582 134 80 64
-1.54282 -1.38046 9.62025 61 25 14
-1.63537 -1.24535 9.65937 148 94 68
-1.00301 -1.23846 9.64479 130 119 76
-1.79322 -1.237 9.80267 162 104 78
2.18485 -1.15949 9.53749 138 86 57
-3.74869 -1.06631 8.97825 134 78 60
-3.37667 -1.06659 9.28128 52 19 6
-3.70445 -1.0016 8.93485 151 92 74
-1.17624 -1.06892 9.63254 121 71 52
-3.7385 -0.914122 9.04563 27 8 6
1.88403 -0.920654 9.43083 94 59 26
-4.25578 -0.848219 9.27691 73 37 22
-3.72251 -0.784521 9.14684 104 46 27
-1.17931 -0.834985 9.64115 164 116 91
-1.01039 -0.820622 9.59318 144 92 66
2.04063 -0.804654 9.88478 170 140 124
-2.63376 -0.83493 10.1518 136 128 88
2.66919 -0.589192 8.79649 23 12 10
-4.22207 -0.524558 9.14605 171 119 87
-4.10196 -0.415751 8.97427 66 28 16
-1.11834 -0.45054 9.89204 165 146 122
-4.32784 -0.383508 9.26118 163 142 123
-3.98756 -0.396784 9.15775 102 56 36
-4.15136 -0.331713 9.21039 140 87 62
2.74526 -0.0948763 8.88534 113 70 55
-1.93503 -0.0888523 9.21702 127 76 60
-3.92381 -0.0749629 9.1495 92 41 22
-3.21888 -0.0507466 8.76724 152 97 70
2.75389 0.00185557 8.9034 184 157 138
2.87783 0.322227 9.21427 98 78 66
2.59935 0.355383 9.51636 160 132 116
2.67627 0.59421 9.36645 98 56 31
2.73444 0.755222 9.1199 144 104 84
2.89862 0.897164 9.32057 102 60 40
2.39804 0.946158 9.15247 184 158 152
2.7064 1.0055 9.05047 145 104 84
2.95651 1.10126 9.32739 133 90 66
-1.78385 1.12991 10.0044 190 142 120
1.83824 1.21095 9.91812 78 70 57
1.85852 1.314 9.88161 157 135 123
-2.37832 1.2899 9.94926 82 34 18
-2.66679 1.29197 9.66524 46 16 11
-2.51099 1.31987 9.94901 103 70 61
-2.96855 1.42964 9.57452 131 82 60
-0.550151 1.33933 8.11594 156 122 114
0.370172 1.36716 8.22214 146 118 108
0.171556 1.40947 8.12487 135 116 115
0.0250514 1.48538 8.09005 68 50 44
-0.581044 1.57389 8.48247 156 110 102
-0.485212 1.55609 8.37993 89 73 68
0.0836654 1.58492 8.14597 138 120 115
-0.376046 1.953 8.65256 60 20 20
-0.0950236 1.96621 8.72324 129 62 60
-0.20501 2.04453 8.64666 56 22 20
-0.460263 2.12238 8.62483 82 48 40
2.1061 -1.66984 8.03176 152 108 88
-1.6362 -2.04076 9.4596 92 66 42
2.01866 -1.68859 8.15099 134 99 80
-1.74525 -1.98288 9.47825 122 87 69
-1.80788 -1.93413 9.49751 90 56 46
-1.57639 -1.90671 9.45403 116 76 56
-1.90412 -1.92502 9.57882 151 103 84
1.93036 -1.6267 8.4075 103 75 64
1.98976 -1.52322 8.3159 110 24 20
-1.99466 -1.81786 9.60343 168 114 91
2.11741 -1.44984 8.19717 144 96 86
2.05226 -1.4648 8.27513 138 86 76
1.96831 -1.49385 8.4505 126 90 73
1.96124 -1.46043 8.41959 176 139 118
-2.05622 -1.73813 9.6474 150 104 80
-1.58125 -1.70364 9.49839 123 74 62
2.09475 -1.40735 8.21812 63 34 23
-1.82003 -1.68122 9.4362 86 32 14
2.55268 -1.35903 8.0233 154 133 124
-1.97426 -1.68374 9.49168 76 19 4
-1.93967 -1.64861 9.48648 128 65 40
-3.87887 -1.45893 8.70274 158 110 86
-1.92903 -1.50246 9.43316 89 20 2
-3.72053 -1.19116 8.82643 121 70 56
-3.70697 -1.18758 8.82534 138 82 66
-1.91855 -1.34587 9.98072 74 28 8
-1.44886 -1.219 9.70564 128 78 62
3.65434 -1.15678 9.54067 78 58 46
-1.9688 -1.23429 9.8795 158 112 78
3.06072 -1.03386 9.04268 123 106 93
-1.40889 -1.1559 9.66904 113 64 52
