ply
format ascii 1.0
element vertex 1284
property float x
property float y
property float z
property uchar red
property uchar green
property uchar blue
end_header
-0.296011 -0.111151 3.56309 156 127 90
-0.668631 -0.11259 3.73237 132 130 126
-1.2352 -0.0934027 4.5861 160 94 77
0.720688 -0.110183 4.68255 78 70 66
0.0498242 -0.0706839 3.66376 98 78 34
0.694733 -0.105241 4.66472 74 68 62
0.0737981 -0.0660186 3.68147 98 64 28
-0.356335 -0.0565463 3.6037 177 146 106
0.740761 -0.0837839 4.57856 117 77 70
-1.23502 -0.0562114 4.4987 82 76 64
-1.26791 -0.0359523 4.44755 153 94 86
-1.26354 -0.0203343 4.40679 153 86 72
-1.24573 -0.0221524 4.42258 138 78 58
0.0702947 -0.0147234 3.70847 108 94 61
-1.23881 -0.00912644 4.37503 134 85 58
0.0960482 -0.014963 3.75483 39 32 14
0.145602 -0.0059097 3.77751 116 108 85
-1.09303 0.00888118 4.52313 164 160 130
0.109876 0.00165222 3.78625 61 55 30
-1.08678 0.0185809 4.52857 72 68 56
0.0836009 0.015514 3.76843 66 55 21
-1.10158 0.0274233 4.48011 164 158 130
0.0644364 0.0217043 3.88376 27 14 1
-0.101284 0.0285477 3.67004 66 54 29
0.74674 0.0121169 4.3642 132 89 82
0.00498352 0.0300711 3.71138 41 30 2
0.770528 0.0138361 4.32762 112 78 68
-0.0603921 0.0377541 3.71366 48 40 18
-0.206563 0.0426155 3.67962 69 48 24
-0.219197 0.0462091 3.67677 18 9 2
-1.14279 0.0594522 4.39692 120 112 86
-0.111236 0.0520198 3.70676 133 122 88
-1.09691 0.0685242 4.39015 64 63 53
0.746115 0.041952 4.2697 104 97 96
-1.20665 0.0719448 4.1604 139 88 72
0.130384 0.0564289 3.88359 38 26 2
-1.12199 0.0775274 4.34842 124 120 106
-1.08817 0.0921449 4.39979 93 88 76
-1.06423 0.093916 4.3595 88 83 66
0.114332 0.0750857 3.87974 36 19 6
-1.08914 0.101629 4.28783 81 78 66
-1.18116 0.101718 4.08569 104 98 91
-1.11537 0.109475 4.21287 99 92 74
-0.955486 0.102962 4.45203 172 170 148
-0.034159 0.100054 3.85497 64 50 12
0.722497 0.0922162 4.15382 130 86 73
-0.106201 0.108091 3.77784 68 52 14
-0.0678217 0.108348 3.78903 132 122 78
-0.0237531 0.110627 3.81178 106 92 58
-0.94118 0.136744 4.36942 144 142 125
-1.14049 0.136067 4.02875 128 121 100
-0.175297 0.118282 3.78295 67 48 19
-0.13208 0.125401 3.79362 40 28 3
-0.100636 0.132952 3.80317 78 67 11
-0.867427 0.158748 4.31107 173 176 153
-1.03032 0.162305 4.18239 88 84 66
-1.13971 0.15995 3.93614 206 204 174
-0.933971 0.170096 4.25924 136 132 102
0.040517 0.149322 3.95864 62 40 4
-1.05258 0.171757 4.08226 128 124 98
-0.974141 0.173411 4.24937 92 89 74
-1.12061 0.173218 3.89914 102 98 98
-1.03827 0.177642 4.01587 154 152 128
-0.607657 0.187247 4.2527 83 85 62
-0.0301802 0.178478 3.98693 132 118 62
-0.747552 0.200014 4.18948 114 111 96
-0.1339 0.181847 3.88794 77 62 10
-1.0789 0.19854 3.86743 152 139 138
-0.638934 0.205849 4.26643 148 150 130
-0.182483 0.189168 3.92712 42 39 12
0.655578 0.175131 3.94092 104 42 32
-0.863869 0.210637 4.16507 98 98 80
-0.565329 0.205612 4.19665 74 74 53
0.447761 0.193401 4.20907 88 80 73
-0.675105 0.218481 4.16248 179 178 148
0.290666 0.203384 4.22271 50 32 13
0.228546 0.217871 4.16989 40 21 1
-0.557744 0.23755 4.0376 88 90 63
-0.44931 0.239197 4.09548 100 104 74
0.161833 0.228213 4.13718 48 27 1
-0.537823 0.242603 4.08416 134 126 72
-0.569411 0.265968 4.03123 87 87 68
-0.24007 0.259642 4.01266 62 62 42
-0.785032 0.271083 3.95584 175 168 140
-0.527635 0.267671 4.01179 80 82 54
-0.194285 0.263555 4.02465 73 70 35
0.27167 0.258539 4.08884 53 34 12
-0.40165 0.271982 3.98494 148 149 122
0.215365 0.264583 4.05124 124 106 68
-0.72841 0.282903 4.0077 114 111 96
0.235087 0.256055 3.91294 128 114 72
0.248745 0.273381 4.04869 58 42 11
-0.548288 0.288452 3.98313 53 52 30
-0.47067 0.291435 3.97745 177 174 136
-0.33066 0.285862 3.94368 166 154 108
0.238745 0.276017 3.9756 54 34 6
-0.426383 0.304937 3.918 132 132 94
-0.750457 0.3206 3.90847 128 124 110
-0.198119 0.315003 3.92084 147 144 112
-0.36144 0.333934 3.92201 154 154 120
-0.134021 0.329447 3.86694 132 128 86
-0.328199 0.336367 3.84846 66 60 32
-0.19672 0.335577 3.86644 156 154 118
-0.457516 0.326838 3.58745 150 150 128
-0.631535 0.373513 4.30684 97 98 67
-0.156876 0.33628 3.84334 158 152 118
-0.781204 0.355995 3.83352 110 105 94
-0.481483 0.351389 3.8145 80 82 57
0.104211 0.352585 3.78659 146 71 46
-0.566559 0.359993 3.57911 189 174 154
-0.281822 0.367053 3.43167 140 92 75
0.00641128 -0.741441 4.41164 254 254 242
-0.0882409 -0.732834 4.41329 240 239 219
-0.014394 -0.736694 4.41232 247 246 232
-0.0876683 -0.700864 4.46877 240 241 222
0.42086 -0.4998 4.1893 94 79 59
-0.592649 -0.383021 3.54465 199 197 164
-0.349922 -0.339505 3.47402 40 38 50
-0.67091 -0.340887 3.5947 171 176 152
0.266785 -0.325504 3.69144 118 108 72
-0.258385 -0.301791 3.46831 140 70 46
-0.270074 -0.294332 3.46476 196 159 126
-0.254676 -0.286846 3.4811 165 132 96
0.221663 -0.265735 3.67939 24 26 28
0.205176 -0.227448 3.69025 45 51 40
-0.0437264 -0.212346 3.54485 73 76 64
-0.258542 -0.185508 3.52168 134 102 68
0.18101 -0.200252 3.67282 86 80 62
-0.246858 -0.173071 3.5244 154 110 78
0.353009 -0.194955 3.9002 34 34 36
-0.43168 -0.167949 3.55547 180 156 114
-0.653857 -0.166182 3.6631 90 86 75
-0.316963 -0.115356 3.56472 152 124 90
-0.186506 -0.102427 3.56939 150 118 80
-0.6456 -0.0747396 3.74727 124 122 104
-0.312306 -0.0745174 3.58533 154 110 75
-1.24088 -0.0517098 4.45864 80 82 80
-1.26556 -0.0345961 4.44406 150 86 76
0.180809 -0.0217511 3.82854 68 58 30
0.102631 -0.0155891 3.7367 106 102 79
0.765532 -0.0306008 4.47025 74 66 66
0.0101758 0.0133023 3.70814 72 64 34
0.0676013 0.0136307 3.74179 74 62 24
0.0260735 0.01688 3.71996 31 26 2
-1.01226 0.0309378 4.45677 99 96 80
-0.22469 0.0264333 3.66509 40 24 9
-0.0583614 0.0405938 3.70757 69 62 39
-1.06468 0.0666579 4.4158 152 152 130
0.164114 0.0612181 3.92546 46 32 8
0.755766 0.0563779 4.25109 86 80 82
0.0760415 0.0687908 3.87077 58 47 15
-1.21017 0.0946336 4.08803 105 105 106
-1.05412 0.112688 4.28806 160 156 126
-0.932636 0.114103 4.40143 102 102 88
-1.10247 0.120707 4.24423 79 75 64
-0.882896 0.118643 4.35139 80 76 70
-0.987977 0.122349 4.34226 150 146 132
-0.0781337 0.10664 3.78495 70 56 22
-0.152494 0.115336 3.77193 54 43 18
-0.131395 0.115734 3.74323 118 108 74
-0.114605 0.114934 3.71559 82 72 42
-0.976539 0.138521 4.33202 166 163 134
-0.270913 0.121615 3.76558 40 34 11
-0.228397 0.126007 3.78215 17 14 2
-0.0354371 0.121631 3.84207 78 60 21
-0.979617 0.146434 4.26702 95 90 78
-0.738315 0.156302 4.27713 145 146 125
0.713155 0.126074 4.0319 72 62 64
-1.12361 0.155156 3.95621 138 103 88
-0.975843 0.161305 4.25033 148 146 128
-0.655161 0.159871 4.18403 134 134 120
-1.04677 0.179009 4.03713 156 152 128
0.039094 0.160466 4.01017 62 46 4
-0.0678372 0.168583 3.90848 113 96 36
-0.856758 0.194176 4.22315 122 124 111
0.474228 0.176521 4.24082 116 106 90
-0.421461 0.190756 4.03002 128 122 82
-0.302103 0.186206 3.87294 72 58 20
-0.237904 0.186459 3.93823 32 30 6
-0.132511 0.190065 4.01298 51 43 13
-0.252829 0.200776 3.94802 122 119 78
-0.546552 0.225481 4.13356 112 108 70
0.197288 0.213686 4.18384 34 18 3
0.190815 0.226542 4.14572 44 24 8
-0.950419 0.259043 3.70875 100 98 93
-0.733769 0.277554 4.00334 127 126 106
-0.522564 0.273701 4.0259 158 162 128
-0.411775 0.273727 4.00657 137 138 108
0.259635 0.266874 4.05613 52 36 12
0.250025 0.272279 4.02653 62 46 17
-0.675908 0.300423 3.92559 160 162 144
-0.857471 0.300547 3.66612 118 118 111
-0.660853 0.307418 3.90664 102 105 94
-0.509995 0.321856 3.90279 158 156 120
-0.198815 0.316555 3.92399 147 144 112
-0.415818 0.321432 3.8241 156 152 117
-0.145378 0.328479 3.85054 104 102 68
-0.327069 0.342139 3.9262 78 72 52
-0.758133 0.350009 3.77041 103 100 90
-0.433344 0.361189 3.93168 148 148 117
-0.338829 0.36176 3.79798 80 80 58
-0.38956 0.360142 3.42259 110 104 92
-0.0751269 -0.719226 4.37892 246 245 225
-0.0823657 -0.697596 4.44031 250 250 233
-0.660681 -0.389164 3.57347 174 175 168
-0.257232 -0.303361 3.46932 136 52 33
0.364223 -0.316051 3.8256 30 32 35
0.272774 -0.27015 3.79087 30 26 25
-0.670571 -0.24514 3.64053 202 178 136
-0.661638 -0.227324 3.6454 198 174 132
0.273882 -0.223425 3.74897 100 76 33
-0.583262 -0.205236 3.60648 193 166 126
-0.357523 -0.193175 3.5258 188 164 126
0.332315 -0.207729 3.87275 34 29 25
-0.245543 -0.174571 3.52143 177 143 110
0.342067 -0.197429 3.86734 53 57 54
0.247128 -0.16772 3.74745 24 28 30
0.089948 -0.122872 3.65106 132 120 84
-1.21988 -0.085728 4.56228 156 74 60
-0.359865 -0.0572642 3.6076 178 149 108
0.715096 -0.0735544 4.62328 132 89 74
-1.23495 -0.0493635 4.45656 79 79 80
0.751058 -0.0713477 4.53124 120 76 70
-0.110337 -0.0234383 3.63569 134 101 52
0.120416 -0.0131467 3.83604 90 90 80
0.10225 -0.00478534 3.7609 108 107 80
0.171405 -0.000563028 3.84721 30 18 8
-1.25323 0.0160312 4.29058 96 92 92
-1.0908 0.0107675 4.50288 164 160 132
0.0431511 0.00593109 3.72429 96 84 59
-1.10819 0.0318317 4.44962 134 119 88
-1.10635 0.033951 4.48947 138 132 104
0.00647243 0.027422 3.70041 72 64 31
-1.04025 0.0426701 4.47702 121 124 112
-0.398115 0.0416241 3.70353 144 122 78
-0.172275 0.036769 3.67807 114 114 94
-1.24097 0.0541697 4.19865 168 108 100
-1.06203 0.0689506 4.41269 152 151 130
-1.03375 0.0844663 4.38935 106 106 92
0.110623 0.0666294 3.8364 78 70 33
-0.407941 0.0779377 3.74311 112 116 90
0.0570773 0.0745493 4.14201 134 115 72
-0.978759 0.112693 4.43199 92 90 82
0.111607 0.0883489 3.89342 35 14 0
-1.11663 0.109533 4.21285 108 102 81
-0.915907 0.11564 4.34662 114 113 100
-0.91044 0.118038 4.37569 160 160 143
-0.256806 0.123873 3.77129 26 26 7
-1.01258 0.147536 4.25185 152 150 130
-0.894202 0.149405 4.34189 84 80 68
-0.792094 0.145738 4.2908 136 136 117
-0.132194 0.128413 4.03536 62 52 11
-0.061959 0.125703 3.94198 141 127 73
-0.149464 0.138726 3.80294 62 46 16
-0.00352313 0.162906 3.9483 90 74 24
-0.792896 0.194524 4.20954 158 158 138
-0.101938 0.181716 4.06781 96 78 28
-0.918077 0.202475 4.14858 94 91 80
-0.973894 0.206102 4.09878 93 94 92
-0.853117 0.209901 4.19274 108 106 91
-0.154109 0.191327 3.91441 48 38 5
0.244077 0.208548 4.48044 70 50 26
0.632318 0.192143 3.86539 53 47 42
0.148549 0.218481 4.18035 56 37 14
-0.725662 0.237463 4.14193 142 142 124
0.190654 0.228893 4.15153 46 28 8
-0.652991 0.259849 4.11358 70 72 63
-0.447292 0.265479 4.02653 94 96 68
-0.222083 0.270553 3.9832 48 48 28
0.187503 0.27408 4.0337 71 54 21
-0.207702 0.272822 3.4325 121 110 68
-0.887045 0.309965 3.75964 104 104 100
-0.150974 0.306621 3.92749 99 95 60
-0.475991 0.319664 3.87673 168 166 130
-0.487301 0.324909 3.85741 92 89 53
-0.413418 0.328481 3.91188 45 47 32
0.0536944 0.354633 3.47504 70 66 55
-0.335891 0.373701 3.54319 192 186 146
-0.0655707 -0.712851 4.3925 254 254 240
0.448636 -0.49952 4.06321 111 97 82
-0.555527 -0.358498 3.53391 241 184 140
-0.341695 -0.351414 3.49943 142 140 123
0.362214 -0.318293 3.83371 34 36 39
0.262187 -0.227801 3.74226 71 60 40
0.334314 -0.235247 3.83672 60 51 39
0.333068 -0.218311 3.84191 102 90 62
-0.518813 -0.190605 3.59313 164 176 159
0.0319854 -0.193022 3.57131 92 80 48
-0.259407 -0.178477 3.5204 161 128 98
-0.147891 -0.145222 3.5502 131 88 55
-0.141159 -0.138302 3.56215 124 91 68
-0.127621 -0.127516 3.56211 160 139 104
0.182401 -0.102156 3.73852 87 84 55
-1.25006 -0.083046 4.55723 216 212 184
0.744475 -0.0756272 4.57336 118 72 66
0.760966 -0.0354477 4.48204 78 68 74
0.0131904 0.00863627 3.71289 90 80 49
-1.07532 0.0213358 4.50886 76 72 62
-0.0292101 0.0149454 3.68388 76 66 40
0.0441188 0.0258912 3.75432 38 30 14
-0.135014 0.0613474 3.69379 124 124 93
0.00288554 0.0956541 3.86424 115 102 60
-1.09573 0.121292 4.22677 84 81 68
-0.88615 0.116623 4.37581 82 79 72
-0.0301514 0.102846 3.79747 130 115 69
0.0482324 0.10083 3.89585 112 94 51
-0.0819338 0.11453 3.80366 76 66 34
-1.02704 0.138628 4.22327 138 134 107
-0.270282 0.121359 3.76633 30 24 2
-0.0321248 0.117188 3.81812 48 32 7
-0.909743 0.1474 4.32545 149 146 122
-1.02048 0.150189 4.20598 102 93 76
-0.834946 0.150419 4.36161 121 120 104
-0.80833 0.167617 4.30366 151 151 129
-1.04494 0.19054 3.96356 154 152 128
-0.922856 0.198999 4.15127 96 96 84
-0.115604 0.179862 4.08445 112 98 46
0.329676 0.182041 4.34288 83 74 64
-0.829019 0.210146 4.17923 173 171 146
-0.901877 0.214383 4.1294 172 164 138
-0.459866 0.226957 4.02718 179 174 134
-0.387696 0.271237 4.00048 124 122 99
-0.308486 0.283378 4.00288 127 124 84
-0.45485 0.296229 3.95979 138 132 95
-0.228937 0.290053 3.964 132 134 99
-0.313317 0.309703 3.9342 134 126 87
-0.514076 0.321902 3.90337 164 157 120
-0.569013 0.330801 4.12471 168 166 132
-0.240435 0.325126 3.89416 54 54 36
-0.206194 0.390867 3.98262 160 112 78
-0.659626 -0.38759 3.57816 64 71 84
-0.483195 -0.363902 3.53422 195 171 139
0.145949 -0.342803 3.57376 35 27 32
-0.507613 -0.187582 3.5702 158 172 160
-0.611889 -0.12417 3.66249 147 142 116
-0.329548 -0.0964713 3.13463 188 152 116
-0.329126 -0.0626406 3.59731 182 157 114
-0.404441 -0.0497184 3.62592 168 128 81
0.186877 -0.0276252 3.84534 46 32 15
-1.26416 -0.012892 4.37198 216 205 175
0.0606961 0.00373355 3.74747 137 126 78
-1.25775 0.0290677 4.26609 214 212 176
-0.151153 0.0333524 3.69166 148 138 92
-0.0533936 0.0393667 3.70077 40 32 13
0.14161 0.0525696 3.86048 111 98 63
-1.07723 0.0845225 4.33877 149 149 128
-1.07781 0.114439 4.30106 143 140 112
-0.0734263 0.113871 3.77463 60 48 20
-0.221888 0.133435 3.78501 28 16 7
-0.118275 0.130078 3.76915 71 60 22
0.0347748 0.150285 3.96833 114 91 36
-0.720205 0.191734 4.19588 98 98 86
-0.0374699 0.177136 3.88523 75 55 8
-0.156422 0.189842 3.91523 59 50 18
-0.567268 0.216434 4.1188 158 153 114
0.180835 0.218963 4.28208 50 34 12
0.591613 0.203942 4.03855 58 52 52
-0.494415 0.257672 4.00288 123 124 103
-0.599956 0.28132 4.01319 64 63 50
-0.224912 0.282204 3.91274 80 82 57
-0.115512 0.287666 3.96134 116 110 66
-0.555762 0.297678 3.96749 64 57 28
-0.338183 0.312123 3.97541 166 159 120
-0.485448 0.320043 3.92594 169 170 128
-0.577365 0.348459 3.77543 160 156 130
-0.598175 0.381692 3.87504 143 118 105
-0.481726 0.381854 3.782 86 82 76
-0.135648 0.375346 3.7271 157 108 76
0.31388 -0.47522 3.97132 16 14 21
0.339142 -0.439723 3.73018 96 94 86
-0.416141 -0.357096 3.47626 206 205 167
-0.358906 -0.343417 3.48246 72 73 87
-0.303588 -0.337558 3.48609 217 158 123
0.154177 -0.34596 3.56918 42 29 27
0.323065 -0.267476 3.82718 114 96 58
0.167589 -0.195411 3.68207 92 88 79
0.211883 -0.127145 3.75628 30 30 30
0.416256 -0.123002 4.12372 52 50 50
-0.156765 0.030064 3.68351 151 142 92
-0.229142 0.0381076 3.67379 85 81 64
0.160181 0.0589275 3.92616 116 104 64
-1.0282 0.0797969 4.42247 168 167 136
0.107335 0.0819487 3.89293 65 46 25
-1.09073 0.111769 4.33305 131 130 103
-0.90574 0.110688 4.37095 164 160 140
0.0229941 0.110079 3.83199 75 64 27
-1.16418 0.136926 3.97791 172 116 106
-0.174321 0.118388 3.84547 65 49 22
-0.218774 0.129181 3.78142 60 56 37
-1.06236 0.216944 3.82919 157 123 113
0.153152 0.219496 4.17622 26 10 0
0.5216 0.244079 4.0407 132 54 42
-0.727676 0.288209 4.00012 178 175 145
-0.219507 0.283307 3.88915 93 94 64
-0.151021 0.315486 3.90469 116 116 94
-0.3374 0.351599 3.78319 68 64 42
-0.403597 0.409065 4.09964 114 86 76
-0.22324 0.390165 3.87204 146 140 113
0.366228 -0.449082 3.75146 14 15 26
-0.414739 -0.357427 3.46087 181 180 144
0.380859 -0.364484 3.82234 62 58 45
-0.414247 -0.326612 3.48793 56 60 79
0.340762 -0.252741 3.85283 34 30 28
0.337501 -0.17612 3.97097 34 38 31
-0.118389 -0.115139 3.56998 162 146 96
-0.259945 -0.0741063 3.58121 136 79 48
-1.24076 -0.0573973 4.47322 77 77 84
0.746713 -0.0395139 4.53951 124 108 99
0.0924146 0.00539426 3.76859 50 46 30
-0.111784 0.0272909 3.68436 143 132 100
-1.10831 0.0471884 4.38335 118 112 90
-0.14754 0.119017 3.73742 54 42 16
-0.240243 0.127344 3.85105 84 78 56
-0.277212 0.185568 3.9339 126 114 71
-0.158696 0.183436 3.90531 136 116 68
-0.118964 0.181085 3.95764 114 98 56
-0.77795 0.210494 4.16592 110 108 94
-0.236201 0.260206 3.98629 112 110 86
-0.540405 0.315333 3.95248 169 158 116
-0.289891 0.327825 3.89222 40 38 26
-0.592776 0.35712 3.77574 108 102 90
-0.302018 0.377837 3.71451 127 112 80
-0.0231963 -0.752624 4.49325 234 234 220
-0.907855 -0.466292 3.88162 110 110 116
-0.848387 -0.454927 3.78963 201 198 172
0.409146 -0.459236 3.86105 116 58 40
-0.372056 -0.338098 3.47916 32 40 68
0.367465 -0.364878 3.84856 58 56 44
0.335051 -0.173137 3.94031 39 40 36
-0.127832 -0.0472708 3.63561 147 108 64
0.13546 -0.00338625 3.79829 44 36 23
-0.130154 0.041923 3.69368 62 55 32
-0.0685349 0.112387 3.82203 114 102 59
-0.896726 0.182029 4.24316 102 102 88
-0.740379 0.195483 4.26317 110 110 100
-0.567398 0.18845 4.22983 156 158 128
0.170721 0.275378 4.05616 109 91 48
-0.31504 0.309726 3.85673 160 158 124
-0.563674 0.347677 3.76957 162 160 128
-0.406993 0.365395 3.55277 157 150 132
-0.106724 -0.313373 3.48518 77 60 44
0.257198 -0.32876 3.68327 82 70 38
0.363987 -0.314101 3.82527 27 32 34
0.225488 -0.2721 3.67863 22 28 28
0.278912 -0.262564 3.75056 36 20 18
-0.266039 -0.15051 3.54414 140 107 71
0.175587 -0.0236125 3.80503 70 56 32
0.145083 0.00336422 3.82723 125 110 76
0.100852 0.0139135 3.79182 114 104 72
-1.12693 0.0402822 4.44031 162 151 128
-0.236931 0.045723 3.68488 16 16 2
-1.12084 0.07826 4.31925 97 88 62
-1.10356 0.0821256 4.33558 128 128 118
-1.10338 0.0865867 4.38156 144 144 125
-1.05651 0.109135 4.28409 164 160 132
-0.987283 0.144979 4.29305 80 76 61
-1.00693 0.150992 4.2236 158 152 138
-1.00206 0.169606 4.21099 163 162 139
-0.817348 0.191656 4.20581 130 130 116
-0.452052 0.243715 4.05456 170 172 144
0.278456 0.265446 4.12691 92 76 40
-0.213406 0.318567 3.92207 116 112 90
-0.392932 0.35793 3.91191 58 60 34
-0.187761 0.347566 3.79662 116 115 90
-0.411656 0.368043 3.94734 74 76 52
-0.262871 0.381721 3.94716 80 76 44
-0.111546 0.367271 3.42132 88 84 78
0.233974 -0.40544 3.63059 173 134 96
-0.675056 -0.385915 3.59352 88 90 92
-0.612885 -0.380899 3.5536 84 80 76
-0.328061 -0.443029 4.29061 162 124 114
0.22003 -0.364857 3.6329 104 46 28
0.383673 -0.368548 3.84885 44 38 24
0.150149 -0.341555 3.57997 56 40 30
0.257391 -0.327254 3.66394 102 92 68
0.363912 -0.316447 3.82551 30 32 34
0.332966 -0.279306 3.81183 90 83 62
0.340765 -0.209307 3.84997 38 36 28
-0.15721 -0.164688 3.53638 132 102 60
-0.264148 -0.150737 3.53586 157 126 88
0.0590536 -0.00720825 3.68589 98 86 56
0.112382 0.00268761 3.77592 65 60 36
-1.04234 0.0930943 4.38906 77 72 58
0.0933107 0.0851901 3.86805 60 37 14
-1.08861 0.165274 4.00288 113 114 98
-0.317777 0.259773 3.99453 122 110 73
-0.265922 0.259893 4.02927 105 101 71
-0.222026 0.272182 4.00675 95 94 71
-0.138749 0.268413 4.02291 84 83 45
-0.491671 0.279022 4.00068 176 174 140
-0.330463 0.286832 3.9578 168 154 110
-0.416563 0.327723 3.89371 56 58 34
-0.485679 0.34696 3.97449 124 123 91
-0.195512 0.336797 3.86843 153 152 116
-0.438512 0.351569 3.95299 92 95 64
-0.155817 0.343689 3.84077 76 74 43
0.197275 0.346256 3.85015 64 58 49
-0.305978 0.358663 3.91616 108 104 77
-0.207016 0.37018 3.86949 70 70 45
-0.591341 -0.378521 3.54378 201 199 166
-0.46402 -0.359945 3.49413 224 208 170
-0.322195 -0.44218 4.24527 174 141 130
0.204542 -0.258212 3.66629 114 110 80
0.257529 -0.254738 3.72689 30 35 39
0.351256 -0.193143 3.88292 45 48 45
-0.357492 -0.139135 3.5581 166 144 103
-0.139232 -0.13636 3.55855 110 74 48
0.04649 -0.071771 3.675 94 76 36
0.0739509 -0.0168314 3.7236 99 84 53
0.145834 0.0110852 3.81849 94 78 46
-0.581834 0.0430629 3.81309 46 42 22
-1.02005 0.083443 4.39868 168 166 140
-1.00244 0.093511 4.39903 66 66 60
0.0284203 0.0930239 3.83553 62 50 15
0.0123226 0.0989107 3.81929 88 77 36
-0.272723 0.136341 3.81985 42 30 9
0.135087 0.222813 4.7433 45 28 5
-0.137834 0.310424 3.91778 150 146 103
-0.1934 0.330748 3.87279 146 144 106
0.280815 0.315526 3.53244 74 67 60
0.247483 -0.415171 3.64554 190 128 116
0.279781 -0.420325 3.67473 109 18 12
-0.539868 -0.363997 3.52286 192 110 86
-0.125111 -0.318937 3.53011 58 49 48
0.243768 -0.326381 3.66783 60 48 29
0.222048 -0.268565 3.67004 38 45 44
0.170038 -0.198555 3.68996 82 80 64
0.19115 -0.0294594 3.8284 48 34 13
-1.14076 0.0574326 4.3789 153 133 97
-1.05625 0.0944801 4.36574 150 146 124
0.0682308 0.0862495 4.00926 74 54 26
0.108203 0.0873263 3.90875 38 19 0
-1.10115 0.1122 4.18911 93 86 72
-0.214665 0.127559 3.72204 22 18 4
-0.100348 0.175205 3.89084 107 96 51
0.230631 0.256292 4.48721 107 90 62
-0.307639 0.325307 3.88712 108 108 77
-0.251831 0.333007 3.87883 104 106 83
-0.365982 0.343494 3.6529 97 98 75
-0.176089 0.34279 3.86369 122 118 88
-0.434203 0.404316 3.93407 168 162 121
0.340683 -0.438962 3.72634 96 96 88
0.134094 -0.383163 3.56294 97 96 94
-0.344299 -0.342267 3.45759 66 70 78
0.279846 -0.278773 3.75607 24 26 30
-1.23514 0.0140601 4.27114 76 78 84
0.0454971 0.00600432 3.72371 40 29 10
-0.52463 0.177723 4.02521 142 141 124
-0.613647 0.189879 4.20263 83 83 75
-0.341781 0.185853 3.90207 88 76 36
-0.165405 0.189935 3.86527 65 64 33
-0.216803 0.263098 3.96039 96 95 67
-0.725182 0.276113 4.01353 88 89 86
-0.239182 0.283147 3.93048 42 40 26
-0.190183 0.281862 3.92251 84 80 56
-0.445385 0.411157 4.06152 98 69 63
-0.211724 0.385986 3.85805 94 56 48
0.239129 -0.414061 3.6603 168 123 92
0.569333 -0.446106 4.00979 194 190 174
0.134559 -0.384785 3.57318 117 118 114
0.378465 -0.363277 3.84558 40 40 30
-0.433289 -0.360823 4.15973 89 44 42
0.241002 -0.325036 3.66668 102 91 69
0.253288 -0.20446 3.71737 26 26 28
0.198343 -0.0245657 3.78074 56 46 22
-0.186727 0.0324004 3.67469 80 69 45
-0.428692 0.384839 3.79605 146 119 106
-0.0940337 0.378077 3.86186 106 68 55
-0.267622 0.396549 3.93765 138 96 78
-0.546137 -0.337776 3.51119 169 71 54
-0.207293 -0.260435 3.48259 164 130 90
0.321934 -0.213809 3.7907 130 108 59
-0.150769 -0.037222 3.61431 146 126 80
0.0575562 -0.015464 3.73551 112 100 66
-0.328113 0.307024 3.87236 134 139 104
-0.0273668 0.377767 4.01826 160 122 99
-0.263976 0.400321 3.93821 106 66 54
-0.517937 -0.3544 3.52585 165 44 34
-0.38467 -0.34552 3.45352 138 136 134
-0.00325936 -0.338909 3.57478 132 25 21
-0.260196 -0.253003 3.50162 182 170 125
-0.745665 0.103153 4.17604 118 116 103
-0.392022 0.282652 3.99249 45 46 32
-0.282303 0.387173 3.92002 164 154 110
-0.0543901 -0.687633 4.41228 236 236 218
-0.811326 -0.441779 3.71425 204 205 174
-0.880814 -0.432236 3.80025 152 152 146
0.0710649 -0.424694 3.94411 50 46 52
0.0568052 -0.36677 3.52619 98 28 8
-0.763958 -0.177156 3.85029 117 118 109
0.527741 -0.224316 4.94529 106 58 42
-0.638715 -0.108061 3.70719 112 114 107
-0.375402 -0.10417 3.57914 122 99 84
-0.847945 -0.113953 4.41694 18 16 17
-0.309958 -0.0330644 3.61376 168 134 90
0.723115 -0.0690515 4.55725 110 63 48
-0.290415 -0.0283932 3.6182 164 126 82
-0.328881 -0.0240902 3.62784 118 78 33
0.166203 -0.0248288 3.82538 121 108 79
0.740267 -0.0281998 4.48033 84 74 60
0.772409 -0.000191881 4.35746 118 83 76
-1.01658 0.0447756 4.51544 145 145 126
-0.102139 0.0621132 3.64595 56 46 8
-0.914645 0.0836041 4.48542 156 152 136
-1.04933 0.0952014 4.35985 154 152 131
0.701962 0.11688 4.0705 99 88 83
-0.168048 0.133381 3.83336 102 86 54
0.640511 0.141566 4.14027 101 84 54
0.0388562 0.160013 4.01539 56 38 2
0.369488 0.160034 4.35994 69 54 45
0.437611 0.157555 4.284 88 70 52
0.519363 0.163295 4.26586 90 77 65
-1.00095 0.19608 4.05569 104 101 92
0.469472 0.181056 4.30844 96 85 74
-0.920413 0.207199 4.15375 96 92 74
-0.329067 0.197309 3.9496 76 62 31
-0.836492 0.211712 4.16813 119 114 96
-0.252466 0.199503 3.96367 116 108 74
0.0825768 0.249946 6.37199 60 46 26
-0.320364 0.201161 4.2257 109 101 70
-1.0413 0.224742 3.80154 149 123 112
0.364389 0.226483 4.10353 82 71 54
0.393153 0.226323 4.10241 96 90 74
-0.666068 0.258323 4.09699 120 119 108
0.250565 0.272261 4.71064 60 48 29
-0.377535 0.265802 4.06962 142 128 92
0.240384 0.259198 4.11233 72 56 14
0.202454 0.264692 4.08355 49 29 9
-0.245733 0.280523 3.9754 80 80 57
-0.631141 0.294613 4.00806 101 102 86
-0.136134 0.280655 3.93892 92 78 34
0.393871 0.261864 3.70332 98 83 52
-0.116863 0.29254 3.97314 82 72 32
-0.43414 0.312058 3.93538 114 114 80
-0.578228 0.341828 3.96287 66 62 40
-0.107407 0.325415 3.8205 124 114 75
-0.310824 0.350454 3.82511 53 51 28
-0.292982 0.356797 3.85365 144 142 120
-0.181288 0.360023 3.83077 122 116 101
-0.229983 0.362354 3.75793 55 52 32
0.059381 0.353074 3.44801 64 60 46
0.341298 -0.448147 3.73988 124 122 118
0.249594 -0.415322 3.62525 151 86 79
0.180654 -0.39042 3.58654 24 16 12
0.135732 -0.38371 3.55803 111 110 108
-0.592061 -0.375713 3.54239 221 221 182
0.235715 -0.315518 3.64613 98 93 66
0.224608 -0.305516 3.62767 77 72 56
0.279715 -0.265274 3.75244 34 20 19
-0.894402 -0.251352 3.96384 170 168 164
0.552053 -0.217234 4.7842 102 50 44
0.530134 -0.22153 4.90207 106 58 42
0.0904419 -0.123788 3.65172 88 72 40
-0.634653 -0.0823206 3.71865 82 79 70
0.686138 -0.122017 4.70774 56 52 50
-0.361822 -0.0555825 3.62516 168 136 100
-0.330169 -0.0253125 3.62641 120 77 33
-0.106194 -0.0275484 3.64111 132 101 56
0.739368 -0.0397844 4.53748 64 55 50
0.0877797 -0.00367021 3.75893 80 69 49
-1.09332 0.00928009 4.51859 154 150 118
-0.234585 0.0456305 3.67923 40 36 25
-0.945262 0.0638474 4.5074 153 154 130
-1.08054 0.0932002 4.31224 86 84 71
-1.06249 0.093197 4.38536 120 114 94
-1.00629 0.0904657 4.40618 64 64 59
0.745323 0.086344 4.16741 110 63 56
-0.921452 0.123163 4.39804 125 126 111
-0.0651671 0.106538 3.78368 130 115 70
-0.213358 0.11743 3.76835 70 61 32
-1.13056 0.138165 3.9958 119 111 91
-0.150821 0.137754 3.77999 34 21 0
0.446594 0.145869 4.25067 99 84 64
0.0470376 0.148043 4.21726 50 26 0
-0.799501 0.169276 4.28286 172 172 146
-0.783116 0.169018 4.26572 152 150 128
-0.998271 0.195771 4.19386 148 148 132
-0.492281 0.183926 4.10876 115 110 76
-0.760652 0.20059 4.2212 92 89 72
-0.602786 0.200223 4.17342 118 117 98
0.44925 0.194721 4.20602 84 77 68
0.234241 0.214027 4.51367 63 42 20
0.611632 0.203711 3.83601 30 21 18
-0.725456 0.252791 4.06802 161 165 137
-0.518003 0.248827 4.06576 158 158 120
0.572761 0.224601 3.76241 108 43 32
-0.826987 0.260112 4.00023 105 102 84
-0.507568 0.262312 4.05537 85 82 66
-0.559805 0.268899 4.04388 52 49 40
-0.531641 0.273898 4.0095 164 166 138
-0.226483 0.268583 3.97499 38 36 16
-0.222858 0.277152 3.99571 45 42 28
0.231084 0.278678 4.02208 56 38 15
-0.496572 0.300586 3.96803 148 145 108
-0.197667 0.295416 3.96104 106 102 66
-0.118161 0.295377 3.9632 104 95 56
-0.151105 0.29983 3.95631 124 118 75
-0.625898 0.33857 3.50214 91 88 79
0.0477779 0.367991 3.9466 50 44 39
-0.815275 -0.439561 3.71058 212 208 176
0.40544 -0.440403 3.82317 101 58 38
0.482088 -0.458166 4.09559 170 162 156
-0.792354 -0.3942 3.67739 191 140 116
0.174186 -0.391684 3.60255 20 12 20
-0.708987 -0.36951 3.61866 196 166 124
0.473137 -0.311336 4.12188 134 127 120
0.203288 -0.271371 3.66372 80 77 56
0.332565 -0.280126 3.83084 85 73 52
0.454997 -0.296433 4.06674 168 161 158
-0.249567 -0.154037 3.53561 163 132 97
-0.649992 -0.144658 3.68441 174 164 138
-0.664902 -0.138703 3.70175 106 102 86
-0.648844 -0.0718643 3.72111 76 74 57
0.715252 -0.110675 4.59112 64 58 53
-0.753628 -0.0699994 3.92431 134 136 112
0.116603 -0.0701478 3.71036 82 68 26
-1.24022 -0.0664473 4.49185 98 95 96
-1.09177 -0.0311791 4.61439 165 160 121
0.764358 -0.0363781 4.4888 69 60 62
-1.07688 0.0222815 4.51431 73 70 59
-0.966276 0.0364144 4.63096 142 139 121
-1.18953 0.117325 4.03179 211 201 168
0.739228 0.0931047 4.1464 127 69 66
0.683137 0.104043 4.18636 118 100 74
-0.203538 0.122675 3.77499 30 19 4
-1.02588 0.152873 4.2167 88 78 64
0.47541 0.128986 4.32265 83 69 61
-0.875383 0.160829 4.31316 154 156 134
-0.836754 0.172774 4.3094 150 150 128
-1.00244 0.197028 4.06406 104 101 92
0.138014 0.230043 5.27763 56 38 18
-0.541848 0.266004 4.03995 72 74 54
-0.507892 0.264319 4.04678 81 78 62
-0.379556 0.263401 4.03513 162 152 113
-0.610768 0.277121 4.05959 104 104 86
-0.393786 0.272622 4.02809 68 62 47
-0.603548 0.290602 3.98754 109 110 94
-0.437824 0.287353 3.97834 114 111 72
0.200658 0.279514 4.04027 122 109 64
-0.86895 0.294589 3.68323 141 136 120
-0.543615 0.328237 4.06316 116 112 78
0.290288 0.331314 4.20154 78 36 26
-0.295389 0.337982 3.86781 38 36 22
-0.153569 0.344168 3.82194 86 80 53
-0.281411 0.354138 3.92177 90 84 54
-0.530677 -0.727546 4.22412 188 181 154
0.470105 -0.546272 4.04817 118 111 104
-0.71443 -0.410836 3.62665 203 186 150
-0.621871 -0.379182 3.5605 82 84 102
-0.497972 -0.353491 3.51995 146 30 25
0.223051 -0.368311 3.63651 98 30 19
-0.668788 -0.231489 3.66569 193 162 122
0.543233 -0.20943 4.74094 108 52 43
0.708114 -0.114025 4.59587 61 56 56
0.0300615 -0.00135939 3.72162 136 121 76
0.747666 0.00271824 4.43907 120 72 64
-0.137293 0.0348056 3.70944 50 44 25
-0.943925 0.0653557 4.50797 153 154 130
0.721811 0.0905017 4.18376 128 90 75
-1.04623 0.150811 4.20275 158 150 124
-0.903639 0.237862 4.17697 91 86 81
-0.67345 0.236706 4.08348 120 115 98
-0.73008 0.251754 4.08319 162 164 138
-0.368628 0.259665 3.98935 160 154 116
0.418661 0.281485 4.12206 135 125 100
-0.623785 0.317824 4.02677 112 111 93
-0.376833 0.325886 3.87846 40 36 27
-0.616768 0.345407 3.96398 102 100 78
-0.546861 0.337875 3.8396 74 70 50
-0.515362 0.351467 3.91848 74 72 51
-0.284837 0.355075 3.82025 100 98 78
-0.197883 0.373868 3.78016 153 150 124
-0.238891 0.366889 3.41229 122 66 52
1.48204 0.626106 3.39211 171 166 168
-0.851434 -0.449858 3.752 74 72 89
0.404488 -0.447904 3.85224 126 80 61
-0.785631 -0.419308 3.68272 168 81 71
-0.395228 -0.346229 3.4738 106 106 112
-0.76683 -0.212686 3.7915 172 168 147
-0.725505 -0.20878 3.72912 162 157 124
0.0872224 -0.122494 3.6568 85 70 37
-0.612071 -0.0787119 3.72075 138 130 100
0.0934086 -0.015601 3.76785 100 93 70
0.764237 0.00544841 4.37004 122 66 62
0.72505 0.0874572 4.22987 144 100 92
-0.0570135 0.101569 3.78475 140 124 68
-0.724867 0.158283 4.34028 144 146 122
-0.885891 0.182439 4.187 96 94 82
-0.840222 0.212849 4.24226 166 164 134
0.625473 0.192544 3.9305 50 43 46
-0.357918 0.28199 3.94878 79 72 59
0.378125 0.270978 4.1474 116 100 74
-0.56687 0.339031 3.92998 65 61 39
-0.455716 0.357757 3.97973 74 71 52
-0.170277 0.347872 3.85777 88 82 61
0.25015 -0.416819 3.64402 184 126 118
-0.775146 -0.392742 3.67395 182 82 71
-0.536321 -0.362061 3.5179 183 96 80
-0.460662 -0.358895 3.49065 204 191 154
-0.548771 -0.335823 3.50373 162 56 42
0.476248 -0.248083 4.94851 52 41 42
-1.20535 -0.0969163 4.5248 154 70 65
-0.180204 0.0481398 3.67463 26 18 10
-1.04099 0.127585 4.29925 135 133 103
-0.118739 0.112618 3.95853 65 48 24
-0.6508 0.250575 4.08296 42 43 36
0.549007 0.23209 3.78488 132 49 38
-0.506875 0.279365 3.86181 108 108 82
-0.62615 0.320264 4.12058 144 144 116
-0.191442 0.328208 3.9097 150 146 104
-0.169105 0.350952 3.82951 90 86 64
-0.898522 -0.490918 3.85485 202 194 168
-0.890992 -0.467658 3.93413 131 128 124
0.411923 -0.455696 3.86971 112 60 48
0.33584 -0.421042 3.74892 29 26 34
-0.642025 -0.35687 3.56516 52 59 88
-0.29154 -0.312123 3.42915 146 32 22
-1.21598 -0.0991814 4.57604 152 64 58
0.690469 -0.11578 4.55115 57 52 52
-1.23868 -0.0166747 4.2978 212 202 188
0.0753057 0.0650371 3.88116 118 108 72
0.737804 0.0880724 4.0947 134 74 72
-0.682585 0.160475 4.04467 172 172 144
-0.266324 0.260355 3.99136 110 105 75
0.456703 0.270991 4.17276 81 72 73
0.403535 0.281503 3.67189 167 112 86
-0.396726 0.318946 3.90586 38 34 28
-0.111485 0.379885 3.92375 166 88 62
-0.0884563 0.367536 3.46617 174 166 124
0.390264 -0.483556 3.81083 198 189 166
0.416742 -0.489742 3.8536 98 43 38
-0.694519 -0.372088 3.64093 110 110 112
0.235529 -0.326104 3.65812 109 94 62
0.47468 -0.250418 4.83777 100 94 96
-0.338686 -0.085641 3.58782 147 142 118
-0.236085 0.0416374 3.696 16 12 6
-0.906287 0.153548 4.20341 172 168 132
0.705423 0.124827 4.02386 78 68 69
-0.598305 0.174249 4.2334 124 125 95
-0.720045 0.215454 4.23901 167 166 142
0.517818 0.227785 4.18995 140 94 68
0.520378 0.23687 3.63278 148 136 97
0.475896 0.258845 3.68193 134 124 110
-0.313627 0.374911 3.97622 128 114 87
-0.76669 -0.420885 3.63974 166 78 72
-0.598664 -0.278877 3.56979 182 160 96
-0.646354 -0.187261 3.6545 194 184 158
-0.289638 -0.179919 3.52126 104 84 66
-0.629181 -0.132818 3.67771 172 167 140
-0.615584 -0.0621348 3.71263 59 53 34
-0.281902 0.341912 3.61771 68 65 42
-0.657735 -0.224299 3.63197 184 155 118
-0.183083 -0.193059 3.52026 109 68 38
-0.172899 -0.184138 3.53007 105 66 38
-0.37499 -0.102979 3.57693 116 92 76
0.14552 0.0112953 3.81729 62 44 10
0.047562 0.0306196 3.7612 27 20 6
-1.05466 0.0712701 4.42513 156 154 128
-0.118618 0.0622138 3.72244 48 35 4
-0.244012 0.118591 3.81183 75 68 42
-0.00324152 0.161308 3.95552 78 60 14
0.138477 0.35462 3.81764 72 36 26
0.146546 -0.343643 3.56337 29 16 16
-0.7308 -0.258014 3.68893 164 173 152
-0.647575 0.237976 4.18199 82 81 70
0.242447 0.217397 4.10689 78 63 35
-0.322431 0.259957 3.99295 120 106 71
-0.302525 0.315033 3.41741 77 73 55
0.0683419 -0.184997 3.60019 82 86 78
-0.33501 -0.0281888 3.62828 118 70 32
-0.244633 0.198392 3.90969 86 82 54
-0.313908 0.320988 3.93042 138 134 109
-0.585357 -0.212129 3.59632 182 148 109
-0.259656 -0.180894 3.52165 143 108 78
-0.33117 -0.0654814 3.60125 164 139 104
-0.123414 0.0540538 3.69937 34 25 9
-0.634755 0.15662 3.99182 136 131 98
-0.344933 0.280226 3.92218 92 85 56
-0.40609 -0.080111 3.58685 176 156 118
-0.304837 -0.0803391 3.59489 151 103 72
0.170557 -0.0234739 3.77489 82 70 44
-0.470633 0.314368 3.94547 140 134 94
-0.323792 -0.216917 3.49983 172 136 104
-0.736676 -0.16768 3.8154 80 82 66
-1.02721 -0.0230692 4.66417 63 56 36
-1.01272 -0.0127908 4.63354 154 146 118
-1.02885 -0.00833603 4.63114 59 52 32
-0.114736 0.0378519 3.68534 118 112 92
0.336216 0.178319 4.35682 57 50 39
0.37722 0.263292 3.86263 108 94 60
0.288523 0.305919 3.94081 116 100 70
-0.0953776 -0.06326 3.60298 120 89 51
-1.08108 0.0192367 4.50826 80 74 60
-0.755026 0.171498 3.79969 166 164 134
0.237817 0.212801 4.13509 57 40 23
-0.677411 0.238056 4.15154 114 114 96
-0.0141438 0.364914 3.44385 116 54 42
-0.170375 -0.308243 3.47151 39 34 34
-0.599679 -0.276126 3.57994 186 158 100
0.273739 -0.276941 3.72492 22 24 30
-0.421124 -0.22062 3.52921 168 147 81
-0.147848 -0.0468801 3.61637 152 122 79
0.0910001 0.0198543 3.78981 31 16 2
0.412106 0.140064 4.21329 80 66 50
-0.00918996 0.357982 3.42511 110 38 16
-0.730589 -0.0614316 3.72421 129 124 98
-0.227391 0.262437 3.95805 86 82 58
0.146808 -0.0805196 3.74152 126 104 66
-0.90117 0.0302778 4.66202 51 48 31
-0.555969 0.320858 4.03428 156 148 112
0.075295 0.377337 4.04314 126 48 32
-0.586671 -0.213698 3.59563 182 148 111
-0.653175 -0.223247 3.63103 178 158 118
-0.587794 0.00214479 3.76342 110 102 60
-0.96352 0.159251 5.07001 142 138 114
-0.0992024 0.149846 2.03758 136 126 104
0.0661635 -0.123187 3.63391 84 68 37
-0.798736 0.11194 4.46843 136 136 114
-0.202672 0.140688 3.79751 66 48 6
-0.153951 -0.175908 3.53063 150 132 94
-0.661457 -0.387064 3.59559 66 69 84
-0.318778 -0.0370723 3.62469 150 115 76
-0.102364 -0.315137 3.47963 52 36 26
-0.0451501 -0.272434 3.5194 130 95 60
0.421158 0.28996 3.86851 154 140 98
-0.620431 -0.103942 3.68201 100 96 92
-0.844977 0.0983285 3.78187 100 92 71
-0.78516 0.136917 3.53784 164 158 129
0.145938 -0.498974 4.50172 96 58 54
-0.143583 0.112629 3.65178 92 79 44
-0.190643 0.376853 3.79203 108 100 86
0.124448 -0.0724925 3.70189 110 95 54
-0.307013 0.376462 3.94499 82 73 52
-0.190903 0.383804 3.90734 148 138 104
-0.64152 -0.284212 3.58303 184 164 100
-0.320628 -0.114396 3.55625 134 106 70
-0.618822 -0.00581947 3.75732 68 56 42
-1.09592 -0.00765148 4.57232 152 146 119
0.658182 0.17257 4.12776 138 100 90
0.491517 0.280159 4.98098 96 30 20
-0.593682 0.269293 3.99981 99 100 84
0.455811 0.265384 4.31542 175 140 111
-0.750218 -0.170487 3.82847 88 87 76
-1.02948 -0.0241202 4.66849 80 73 54
-1.03674 -0.00849192 4.64464 72 66 48
-0.218593 0.0452132 3.68941 21 9 3
0.0268178 0.101012 3.8613 129 113 74
-0.603971 0.158308 4.1765 167 164 144
-0.50466 0.292878 3.99236 79 76 51
0.263565 -0.325073 3.69188 100 92 65
-1.02915 0.0134076 4.62198 152 150 125
-0.102867 -0.316787 3.48106 67 50 44
-1.24467 -0.0615526 4.49846 72 68 72
-0.302707 0.25708 3.96346 111 107 80
-0.882935 -0.227018 4.04988 136 136 132
-1.26684 -0.0482974 4.47706 214 190 172
-0.402961 0.0785098 3.7303 102 104 82
0.0217253 0.0983123 3.55838 96 80 42
0.651816 0.182691 4.18694 94 53 52
0.493423 0.233206 4.61639 102 92 77
0.495778 0.248734 4.18396 62 22 14
-0.335021 0.280463 3.98213 157 144 97
-0.120503 0.320303 3.90855 93 80 51
-0.233308 0.189932 3.92565 69 65 40
-0.401161 0.279889 3.95316 110 100 78
0.436638 0.284701 4.1122 86 42 43
0.588606 0.207231 4.1608 117 98 82
-0.785884 -0.421589 3.68215 166 86 74
0.361816 -0.418786 3.76851 58 50 32
-0.698441 -0.0412344 3.84274 52 50 30
-0.21959 -0.0304022 3.60758 160 111 72
-0.620212 -0.0115125 3.80438 113 109 82
-1.06463 0.0659265 4.41269 153 152 125
-1.03638 0.105843 4.36719 138 131 116
-1.03353 0.116632 4.28359 92 86 61
-0.904921 0.116141 4.39817 71 68 62
0.328062 0.192098 4.26593 78 64 49
0.378055 0.232895 4.15421 112 105 88
-0.515901 0.308542 3.97638 162 160 131
-0.78907 -0.416195 3.70029 156 42 31
-0.106218 -0.314582 3.49082 66 50 37
-0.956231 -0.142513 4.19911 110 73 56
-0.0300146 0.0999807 3.80947 105 88 48
0.000161064 0.11871 3.85133 76 56 16
-0.837804 0.209795 4.17087 116 114 97
0.484381 0.250503 4.06599 162 144 112
-0.89069 -0.437645 3.82019 186 183 175
-0.739895 0.279165 4.03352 117 115 100
-0.550553 0.307573 3.90728 163 158 122
0.410297 0.285821 3.65039 112 40 24
-0.593667 -0.382143 3.55109 169 166 137
-0.770264 -0.215355 3.8585 171 167 138
0.211995 0.263789 4.18455 98 76 36
-0.139058 0.307174 3.94054 138 132 90
0.481119 -0.464933 4.13425 166 160 156
-0.613595 0.0213287 3.80196 151 142 106
-0.158735 0.357516 3.7905 120 111 89
0.326627 -0.415356 3.75548 36 29 29
-0.791985 0.20941 4.20767 90 88 77
0.378527 0.270472 4.52255 98 86 62
0.452007 0.279788 3.99935 87 43 42
0.478306 -0.491332 4.21498 160 154 153
0.140949 -0.382707 3.55219 80 78 78
-0.404709 -0.17549 3.54455 166 153 128
0.193123 -0.117977 3.70315 61 61 55
-0.266266 0.187436 3.85347 82 74 43
0.0181885 -0.758648 4.51461 244 244 230
-0.790816 -0.164748 3.83168 174 176 160
-0.83756 -0.168362 3.95157 139 140 130
0.572546 -0.21784 4.90964 102 72 61
-0.720002 -0.136636 3.77474 82 84 75
0.671619 -0.15754 4.72721 119 78 80
-0.725372 -0.0664608 3.8266 156 156 131
-0.704167 -0.0520194 3.81746 80 78 54
0.350651 -0.0805082 4.30573 44 38 28
-0.82865 -0.0467691 4.05026 94 86 52
-0.621125 0.0646876 3.86928 74 67 30
-0.607088 0.064217 3.86918 129 126 101
-1.19461 0.112441 4.06062 196 190 162
-0.874659 0.111222 4.28229 164 162 146
-0.222559 0.140848 3.80321 62 36 8
-0.928324 0.200406 4.16572 89 86 75
-0.157415 0.192103 3.92795 42 32 4
0.458557 0.198277 4.16522 94 85 67
-0.630332 0.281319 4.02904 116 120 96
0.422657 -0.5209 4.07099 94 47 40
0.421786 -0.487749 3.83488 112 58 54
-0.584906 -0.205171 3.613 185 155 117
-0.852905 -0.188668 4.04372 177 178 163
0.493282 -0.253363 5.03664 68 60 46
-0.788315 -0.160947 3.80857 132 132 120
-0.71488 -0.154438 3.72696 182 183 161
0.398558 -0.194709 5.06325 68 56 32
-0.735384 -0.0522948 3.85716 56 56 38
0.354025 -0.0735596 4.30257 47 42 32
0.74523 0.00716342 4.41248 122 80 68
-0.192208 0.0558033 3.72728 30 18 8
-0.62615 0.0650254 3.89078 74 67 30
-0.589666 0.0696326 3.85854 58 53 26
-0.893254 0.163017 4.27354 126 121 102
-1.0209 0.167411 4.2151 104 99 84
-0.954743 0.172424 4.19832 108 109 90
0.313894 0.240537 4.11033 128 117 89
-0.649613 0.262083 4.05987 85 86 70
-0.49068 0.257814 4.01901 150 148 115
-0.632657 0.293918 4.00905 94 96 75
-0.613291 0.292772 4.01932 112 112 102
-0.499449 0.299359 3.95231 70 68 38
-0.623274 0.311965 3.90627 60 59 43
-0.343663 0.321696 3.96679 114 116 94
0.374206 0.29862 3.61892 98 34 20
-0.33363 0.334514 3.92866 134 132 104
-0.380033 0.33112 3.64545 124 124 93
0.47068 -0.537805 4.00334 88 80 75
0.529361 -0.196882 4.2852 70 66 65
0.399228 -0.190195 5.00357 52 44 27
-0.802317 -0.125891 3.9123 72 66 49
0.682129 -0.163127 4.71665 174 162 160
0.654407 -0.145492 4.69461 112 68 60
0.369898 -0.105174 4.2836 44 44 35
-0.822609 -0.0581168 3.99363 174 164 119
-0.68347 -0.0392653 3.80897 68 66 44
-0.746756 0.0747508 4.18559 94 94 79
-0.586482 0.0709386 3.84629 81 78 51
0.164569 0.0609145 3.91346 58 44 15
-0.714615 0.091169 4.09591 124 124 99
0.700659 0.133698 4.0485 83 75 68
-0.92883 0.171993 4.24264 130 124 98
-0.678724 0.248685 4.10636 50 48 38
0.340802 -0.44282 3.72108 121 118 110
0.415476 -0.262845 4.77678 116 68 64
0.393082 -0.187206 5.0288 53 47 34
0.689606 -0.157032 4.51184 173 165 162
-0.870214 -0.104538 3.81281 104 68 70
-0.689325 -0.0840498 3.80332 70 67 51
-0.632167 -0.0185825 3.76046 36 30 20
-0.949402 0.013303 4.44089 102 100 86
0.766786 0.00362571 4.39591 118 68 62
-1.23212 0.0711728 4.15426 212 201 174
0.139534 0.05141 3.86771 103 88 53
-0.62226 0.068042 3.88713 70 62 30
-0.402577 0.0776824 3.72732 108 114 88
-1.2037 0.096526 4.07078 110 109 109
-0.210315 0.121357 3.76744 36 28 6
-0.934127 0.144146 4.34141 115 112 90
-0.990435 0.149254 4.2682 110 106 95
-0.968712 0.157864 4.24927 156 150 128
-1.00776 0.198111 4.06764 106 104 93
0.450957 0.194738 4.19433 78 72 64
-0.722823 0.223457 4.32761 162 161 131
-0.49144 0.319338 3.93079 157 158 121
0.461535 -0.543611 4.08951 99 90 85
0.408733 -0.259213 4.77842 108 46 40
0.485464 -0.249801 4.96151 52 46 46
0.558633 -0.22112 4.9052 96 50 46
-0.897985 -0.135311 3.98615 216 210 185
0.406629 -0.179834 4.87129 50 44 30
0.75174 -0.0392649 4.54173 68 59 62
-1.08291 0.044192 4.39741 120 114 88
0.151672 0.057709 3.98593 52 36 6
0.75709 0.0478085 4.28379 78 72 74
-1.20218 0.116746 4.06191 213 208 179
-0.612456 0.138951 4.17643 64 61 38
0.708292 0.12668 3.93265 85 74 74
0.414134 0.283722 3.56939 118 40 22
-0.497177 0.323823 3.8866 104 100 68
-0.292507 0.381264 3.9515 171 164 126
-0.197773 0.372442 3.7197 100 97 81
0.47206 -0.581424 4.15358 150 136 127
-0.834674 -0.450573 3.76241 180 176 150
0.439303 -0.336081 4.50256 162 155 150
0.558189 -0.210561 4.78685 112 58 50
0.696141 -0.114703 4.53764 62 54 54
-0.720668 -0.0663929 3.83715 141 140 110
-0.73398 -0.0244837 3.79615 161 156 121
-0.6793 0.024229 3.92815 56 53 32
0.759 0.0304348 4.40474 83 77 78
0.0594515 0.0916904 3.92202 77 60 28
0.736362 0.0893562 4.13475 132 79 75
-0.946147 0.1442 4.22339 149 144 121
-0.946842 0.154356 4.10946 93 92 80
-1.10389 0.178698 3.87427 93 90 94
0.668366 0.164183 3.83927 128 60 54
-0.993409 0.233331 3.73394 172 161 137
-0.980125 0.249774 3.74381 94 94 87
-0.433509 0.326161 3.92822 115 113 82
-0.0929035 0.364992 3.47971 162 152 108
-0.0507179 0.362185 3.43559 143 64 42
0.393009 -0.49546 3.88559 188 180 150
-0.400691 -0.35672 3.51523 140 138 132
-0.467323 -0.386687 3.86992 64 69 85
0.339615 -0.189501 5.06057 98 90 66
0.0704851 0.0852271 3.85258 114 103 66
-0.859074 0.235515 3.986 92 87 85
-0.988448 0.244556 3.76431 136 133 122
0.177752 0.275319 4.10317 54 36 15
-0.467578 0.308488 3.90603 152 150 105
-0.784822 -0.416041 3.69588 160 42 31
-0.259445 -0.343187 3.50318 149 22 15
-0.74567 -0.203961 3.91975 170 160 132
-0.646638 -0.154062 3.69902 166 157 120
0.437101 -0.144325 4.25269 50 46 34
-0.888942 -0.101777 3.84878 158 123 121
-0.854182 -0.0802545 4.01531 173 160 111
-1.25709 -0.0324452 4.43893 145 80 72
-0.800469 0.204463 4.22778 129 126 114
-0.982668 0.245639 3.75142 126 122 114
0.191971 0.313495 5.05684 134 121 87
0.476905 -0.624557 4.19595 136 132 126
0.487652 -0.577118 4.05002 114 102 99
0.345712 -0.233312 3.87293 32 34 29
0.446456 -0.235723 4.30848 112 61 53
0.352735 -0.199865 3.9171 34 39 32
-0.778154 -0.178451 3.87152 102 104 94
-0.746997 -0.162706 3.76155 192 194 176
-0.778931 -0.105865 3.89411 135 124 96
-0.738031 -0.102654 3.86071 48 46 34
0.691355 -0.133695 4.38504 106 68 64
-0.719195 -0.00808591 3.93551 140 132 92
-1.06897 0.0216334 4.49962 67 66 60
-0.0288143 0.0184308 3.88082 38 32 5
-0.667262 0.0305808 3.9905 27 22 10
-0.603027 0.0676664 3.90205 70 68 42
-1.01794 0.113404 4.38564 86 82 73
0.0597272 0.105692 3.8774 52 34 4
-0.668657 0.124203 4.16046 179 170 140
-0.188601 0.183298 3.92799 62 54 21
-0.652899 0.237947 4.11381 124 124 108
-0.879459 -0.459563 3.84399 86 86 85
-0.92346 -0.474323 4.0207 185 182 158
0.451917 -0.259807 5.08149 62 55 46
-0.824701 -0.157177 4.0307 104 106 94
-0.872958 -0.139121 4.08206 100 88 69
-0.70999 -0.120059 3.77443 126 129 115
-0.749896 -0.107819 3.89808 40 36 32
-0.688333 -0.0741478 3.83434 61 55 36
0.356024 -0.0907976 4.28086 86 77 56
-1.00149 -0.0626029 4.5135 170 162 120
-0.940678 0.00725126 4.43471 106 104 80
-0.77888 0.0537987 4.20125 88 84 70
-1.23987 0.0722951 4.17163 214 205 176
-0.58113 0.0688603 3.77979 120 115 86
-1.03907 0.112306 4.31356 92 84 61
-1.04499 0.150725 4.2651 106 96 82
0.612677 0.154104 4.20626 108 92 63
-0.102062 0.173197 3.91351 76 63 23
-0.311044 0.181305 3.95269 130 120 70
0.22001 0.198267 4.56655 60 46 20
0.367987 0.229511 4.10762 87 74 60
-0.546167 0.247814 3.96966 146 146 120
-0.649819 0.261157 4.12832 92 94 76
-0.654212 0.308793 4.15305 44 46 33
0.304755 0.292716 3.99588 108 88 57
0.365968 -0.466844 3.8307 22 16 22
0.457447 -0.484008 3.9728 83 74 66
-0.776374 -0.210884 3.81502 186 184 164
0.540594 -0.210043 4.77717 109 62 48
-1.08874 -0.150815 4.5798 147 80 62
0.687513 -0.117283 4.70724 68 64 58
-1.03801 -0.0398306 4.73586 171 167 126
-0.971919 0.00523762 4.53288 109 107 86
-0.65414 0.0356728 3.96878 24 24 12
-1.03644 0.125005 4.30758 144 139 108
-0.703319 0.174596 4.24236 170 169 151
-0.73298 0.214584 4.11877 168 168 142
0.369778 0.22614 4.11235 106 92 76
-0.985081 0.247059 3.74137 100 100 90
-0.703842 0.311723 3.75042 110 106 88
0.470253 -0.484467 4.28072 171 165 163
0.202182 -0.393655 3.6365 136 103 26
0.466401 -0.248309 4.91543 57 51 44
0.472372 -0.262888 5.18203 54 48 47
-0.8461 -0.138899 4.00612 116 106 92
-1.14809 -0.156476 4.6594 220 215 194
0.658383 -0.146571 4.62255 134 92 82
-0.85296 -0.0668739 4.1775 67 62 38
-0.673844 -0.042051 3.85233 57 56 34
-1.10925 -0.0493577 4.78407 62 60 49
-1.10511 -0.0322696 4.65136 169 162 120
-0.966179 -0.00980041 4.53252 168 163 124
-1.03599 0.0107571 4.63389 163 158 131
-0.812541 0.086938 4.42386 139 139 118
0.187461 0.278199 4.01167 50 26 11
-0.214409 0.367668 3.62336 170 166 132
-0.0273582 0.358803 3.50128 168 96 71
-0.811669 -0.0545595 4.06465 52 50 33
-1.06328 -0.0468058 4.78203 168 160 114
-0.624657 -0.0280549 3.73369 42 39 30
-0.61235 0.0400397 3.91 42 40 20
-1.04393 0.150325 4.40557 102 96 90
-0.747083 0.149112 4.32522 121 122 110
-0.740561 0.162017 4.21135 188 186 146
-0.482091 0.181029 4.06478 114 110 74
-0.670233 0.217863 4.13174 168 166 138
0.244995 0.21851 4.28382 48 28 6
0.276918 0.254516 4.1026 62 46 16
0.22207 0.278952 4.08168 58 40 17
-0.156243 0.36663 3.44537 74 72 72
-0.862601 -0.450787 3.7682 107 108 118
-0.656094 -0.238649 3.60276 192 164 124
-0.910248 -0.231569 4.12608 123 124 120
0.33505 -0.188423 3.95514 34 36 32
-1.11822 -0.153586 4.58103 218 214 199
-1.24053 -0.143878 4.82018 102 104 112
0.669935 -0.14896 4.70177 112 57 56
0.0811854 -0.0637216 3.67254 84 52 18
0.741659 -0.076182 4.513 112 66 60
-0.656194 0.00920315 3.83236 158 153 110
-0.996248 -0.14557 4.31601 168 100 87
-1.05057 -0.114135 4.27671 83 86 92
-0.64689 -0.0989326 3.8526 190 185 143
-0.74127 -0.0690703 3.91626 150 147 114
0.384297 -0.079061 4.146 49 50 46
-1.0517 -0.0410412 4.59908 82 81 68
0.743978 0.0293837 4.4308 90 82 83
-0.646331 0.104758 3.88117 137 138 114
-0.589394 0.298028 4.03169 60 58 36
0.207463 0.328593 4.29816 122 112 103
-0.416508 -0.327514 3.48959 96 99 106
-0.829462 -0.221215 3.83054 146 146 142
-0.832421 -0.210945 3.92029 114 114 110
0.559089 -0.207199 4.43096 148 108 94
0.656832 -0.153763 4.77502 106 55 48
-1.05155 0.102729 4.08783 107 104 90
-0.659505 0.23885 3.37682 90 90 89
0.337766 -0.451901 3.76483 44 42 45
0.220954 -0.264847 3.68178 16 24 24
0.438838 -0.243545 4.22996 187 171 161
-0.261871 -0.156081 3.57015 168 136 102
0.31491 -0.169049 3.86033 69 70 60
-0.214686 -0.0340539 3.61106 166 125 79
0.0581603 -0.00524169 3.702 40 29 9
-1.25749 0.0160386 4.2964 96 94 90
-0.926563 0.0168947 4.50689 60 57 52
0.737195 0.0507241 4.34087 94 86 82
-0.985162 0.133442 4.27821 158 154 134
-1.00823 0.140552 4.30231 90 87 74
-1.20987 0.159561 4.10058 168 160 136
0.70316 0.136159 4.01986 66 56 44
-0.606708 0.188701 4.19466 62 62 47
0.223023 0.204865 4.23473 56 40 6
-0.235729 0.282735 3.99362 128 129 102
-0.0828466 0.367139 3.50013 156 113 84
0.0261319 -0.755483 4.47254 238 238 224
