ply
format ascii 1.0
element vertex 1279
property float x
property float y
property float z
property uchar red
property uchar green
property uchar blue
end_header
0.0440688 0.143221 1.73976 30 24 2
0.138184 0.135808 1.76219 48 32 7
-0.215017 0.172005 1.96018 149 146 122
-0.257757 0.175318 1.91101 102 93 76
-0.185357 0.171408 1.97489 121 120 104
-0.173975 0.177419 1.95214 151 151 129
-0.264207 0.190995 1.81338 154 152 128
-0.217241 0.19211 1.88977 96 96 84
0.103873 0.163958 1.86951 112 98 46
0.278794 0.154794 1.97691 83 74 64
-0.17996 0.194332 1.90189 173 171 146
-0.208255 0.197562 1.88097 172 164 138
-0.0310676 0.191038 1.84288 179 174 134
-0.00101874 0.206716 1.83255 124 122 99
0.0307961 0.209555 1.83392 127 124 84
-0.0266581 0.218156 1.81549 138 132 95
0.0629257 0.210051 1.81899 132 134 99
0.0301741 0.219844 1.80619 134 126 87
-0.0490324 0.229597 1.79225 164 157 120
-0.0727674 0.235516 1.88099 168 166 132
0.0599418 0.223953 1.79047 54 54 36
0.0742664 0.249647 1.82639 160 112 78
-0.121368 -0.0499296 1.66246 64 71 84
-0.0503599 -0.0450821 1.64625 195 171 139
0.199462 -0.052324 1.66738 35 27 32
-0.0559678 0.0256667 1.65983 158 172 160
-0.0966946 0.0538079 1.6959 147 142 116
0.0213043 0.0555613 1.48549 188 152 116
0.0178207 0.0709001 1.67153 182 157 114
-0.0120262 0.0780167 1.68244 168 128 81
0.221308 0.0729131 1.77523 46 32 15
-0.360625 0.117341 1.97692 216 205 175
0.172791 0.0881168 1.73506 137 126 78
-0.356103 0.13342 1.93444 214 212 176
0.089901 0.104961 1.7109 148 138 92
0.128786 0.104964 1.7153 40 32 13
0.205179 0.105967 1.78084 111 98 63
-0.283211 0.151231 1.96417 149 149 128
-0.282543 0.163019 1.94932 143 140 112
0.12205 0.135353 1.74451 60 48 20
0.0634269 0.146893 1.74759 28 16 7
0.104735 0.142867 1.74176 71 60 22
0.164223 0.147909 1.82307 114 91 36
-0.13709 0.184258 1.90893 98 98 86
0.136944 0.160046 1.78895 75 55 8
0.0897141 0.1682 1.80011 59 50 18
-0.0748914 0.189952 1.87897 158 153 114
0.221154 0.172832 1.95044 50 34 12
0.386163 0.155578 1.85551 58 52 52
-0.0437942 0.20402 1.83272 123 124 103
-0.0851736 0.216106 1.8357 64 63 50
0.0646888 0.206638 1.7987 80 82 57
0.107951 0.206267 1.81882 116 110 66
-0.0668418 0.221299 1.81788 64 57 28
0.019938 0.221623 1.82267 166 159 120
-0.0378726 0.228234 1.80151 169 170 128
-0.0725008 0.241231 1.74069 160 156 130
-0.0809223 0.255396 1.78057 143 118 105
-0.0336797 0.252096 1.74389 86 82 76
0.104413 0.240508 1.72369 157 108 76
0.259419 -0.107593 1.82832 16 14 21
0.272431 -0.0950036 1.73167 96 94 86
-0.0229691 -0.0442938 1.62326 206 205 167
-0.000140685 -0.0402749 1.62659 72 73 87
0.0219733 -0.0393127 1.62837 217 158 123
0.202648 -0.0538127 1.66577 42 29 27
0.269505 -0.0258393 1.76993 114 96 58
0.210793 0.00607891 1.71052 92 88 79
0.229489 0.0323922 1.74015 30 30 30
0.307445 0.0303954 1.89045 52 50 50
0.0877208 0.10374 1.70742 151 142 92
0.0592785 0.108737 1.70294 85 81 64
0.212154 0.108291 1.80728 116 104 64
-0.264725 0.148544 1.99848 168 167 136
0.192028 0.118628 1.79345 65 46 25
-0.288046 0.162426 1.96206 131 130 103
-0.215051 0.157521 1.9793 164 160 140
0.159738 0.131666 1.76832 75 64 27
-0.313177 0.172755 1.81852 172 116 106
0.0814451 0.13995 1.77219 65 49 22
0.064652 0.145095 1.74603 60 56 37
-0.269294 0.201374 1.75937 157 123 113
0.211135 0.17333 1.90731 26 10 0
0.359184 0.173341 1.85655 132 54 42
-0.135674 0.222003 1.82958 178 175 145
0.0672002 0.206817 1.78887 93 94 64
0.095155 0.217926 1.79532 116 116 94
0.0230332 0.236444 1.74517 68 64 42
-0.00479542 0.262362 1.87183 114 86 76
0.0685877 0.249279 1.78151 146 140 113
0.282802 -0.0993244 1.7403 14 15 26
-0.0223691 -0.0445232 1.6174 181 180 144
0.290084 -0.0658466 1.76877 62 58 45
-0.0215162 -0.032161 1.62779 56 60 79
0.276709 -0.0203356 1.78027 34 30 28
0.276345 0.0106654 1.82728 34 38 31
0.100241 0.0446937 1.66296 162 146 96
0.0451178 0.0645399 1.66582 136 79 48
-0.3536 0.099497 2.01845 77 77 84
0.437504 0.0569596 2.05959 124 108 99
0.185189 0.0880437 1.74418 50 46 30
0.105482 0.101536 1.70822 143 132 100
-0.297412 0.137417 1.98303 118 112 90
0.0931715 0.139062 1.72867 54 42 16
0.0553592 0.145208 1.77405 84 78 56
0.0414146 0.169605 1.80678 126 114 71
0.0887269 0.165662 1.79616 136 116 68
0.103999 0.163959 1.81744 114 98 56
-0.1593 0.193073 1.89638 110 108 94
0.0590665 0.198488 1.82801 112 110 86
-0.0602321 0.227897 1.81206 169 158 116
0.0403685 0.226268 1.78934 40 38 26
-0.0783697 0.245048 1.74055 108 102 90
0.0384575 0.245633 1.7175 127 112 80
0.114064 -0.20748 2.03593 234 234 220
-0.225348 -0.0738566 1.78374 110 110 116
-0.200443 -0.0711855 1.74697 201 198 172
0.298497 -0.104091 1.78551 116 58 40
-0.00495926 -0.0378053 1.62458 32 40 68
0.284512 -0.0655545 1.77918 58 56 44
0.275679 0.0117862 1.81505 39 40 36
0.0977048 0.0721192 1.68869 147 108 64
0.201877 0.0836339 1.75599 44 36 23
0.0984457 0.107832 1.71185 62 55 32
0.123483 0.134813 1.76384 114 102 59
-0.208049 0.185122 1.9268 102 102 88
-0.145681 0.186539 1.93589 110 110 100
-0.0768704 0.179368 1.92427 156 158 128
0.220615 0.194585 1.85889 109 91 48
0.0302864 0.219528 1.77472 160 158 124
-0.0668434 0.240485 1.73798 162 160 128
-0.00233174 0.2427 1.65259 157 150 132
0.100757 -0.0345821 1.62942 77 60 44
0.243089 -0.049083 1.71179 82 70 38
0.284607 -0.0453895 1.76966 27 32 34
0.231946 -0.0258039 1.70953 22 28 28
0.252715 -0.0230918 1.73899 36 20 18
0.041023 0.0342767 1.65138 140 107 71
0.217232 0.0746129 1.75921 70 56 32
0.205551 0.0861944 1.76795 125 110 76
0.188617 0.0913505 1.75307 114 104 72
-0.305129 0.135195 2.00473 162 151 128
0.0562816 0.11197 1.70724 16 16 2
-0.300581 0.149667 1.95596 97 88 62
-0.293882 0.150888 1.96292 128 128 118
-0.293928 0.152841 1.981 144 144 125
-0.273881 0.160194 1.94224 164 160 132
-0.245636 0.172824 1.94658 80 76 61
-0.252498 0.175351 1.91812 158 152 138
-0.249985 0.182583 1.91305 163 162 139
-0.175884 0.18673 1.91231 130 130 116
-0.0278008 0.197616 1.85394 170 172 144
0.262463 0.18826 1.8888 92 76 40
0.0702339 0.220793 1.80208 116 112 90
4.54344e-05 0.240891 1.79624 58 60 34
0.0821964 0.231172 1.75205 116 115 90
-0.00770492 0.245573 1.81095 74 76 52
0.0518308 0.247263 1.81185 80 76 44
0.116345 0.235503 1.6019 88 84 78
0.232355 -0.0791475 1.69095 173 134 96
-0.127711 -0.0488228 1.66862 88 90 92
-0.102395 -0.0485019 1.65285 84 80 76
0.00212941 -0.0775553 1.95202 162 124 114
0.227862 -0.062667 1.69142 104 46 28
0.29087 -0.067423 1.77943 44 38 24
0.201192 -0.0518717 1.66947 56 40 30
0.243264 -0.048582 1.7046 102 92 68
0.284488 -0.0463296 1.7699 30 32 34
0.273208 -0.0308698 1.76421 90 83 62
0.277775 -0.00310156 1.77921 38 36 28
0.0840216 0.0258666 1.649 132 102 60
0.0419691 0.0340277 1.64777 157 126 88
0.17244 0.0835356 1.71034 98 86 56
0.193006 0.0865434 1.74706 65 60 36
-0.269623 0.153878 1.98455 77 72 58
0.186742 0.12015 1.78339 60 37 14
-0.282758 0.182236 1.82927 113 114 98
0.0265294 0.200358 1.8308 122 110 73
0.0468756 0.199256 1.84497 105 101 71
0.0648727 0.202952 1.83615 95 94 71
0.0976975 0.199422 1.84344 84 83 45
-0.0421827 0.212417 1.83189 176 174 140
0.0224904 0.211301 1.81586 168 154 110
-0.00992502 0.229399 1.78888 56 58 34
-0.0378517 0.239162 1.82118 124 123 91
0.0782625 0.227368 1.78061 153 152 116
-0.0188089 0.239712 1.81296 92 95 64
0.0943805 0.229023 1.77004 76 74 43
0.234459 0.221266 1.77718 64 58 49
0.0344042 0.239049 1.79912 108 104 77
0.0744509 0.240947 1.7811 70 70 45
-0.0937339 -0.0481667 1.64911 201 199 166
-0.0424562 -0.0441372 1.63067 224 208 170
0.00474833 -0.0775426 1.93419 174 141 130
0.224005 -0.0198305 1.70471 114 110 80
0.244669 -0.0195338 1.72913 30 35 39
0.282109 0.00318512 1.79225 45 48 45
0.00502853 0.0410775 1.65583 166 144 103
0.0915941 0.0367302 1.65807 110 74 48
0.16587 0.0581773 1.70626 94 76 36
0.177731 0.0795149 1.72568 99 84 53
0.206166 0.0891989 1.76428 94 78 46
-0.0821262 0.120124 1.75643 46 42 22
-0.261265 0.149589 1.9891 168 166 140
-0.253889 0.153194 1.98913 66 66 60
0.16145 0.124759 1.7698 62 50 15
0.155332 0.127434 1.76321 88 77 36
0.0430567 0.149455 1.76103 42 30 9
0.199236 0.177389 2.13468 45 28 5
0.0999867 0.215681 1.80126 150 146 103
0.0788584 0.224945 1.78261 146 144 106
0.269848 0.205607 1.6498 74 67 60
0.237378 -0.0832774 1.69688 190 128 116
0.249796 -0.0860402 1.70905 109 18 12
-0.0727954 -0.0437092 1.64125 192 110 86
0.0928642 -0.0361713 1.64748 58 49 48
0.237923 -0.0478649 1.70562 60 48 29
0.230739 -0.0243463 1.70614 38 45 44
0.21158 0.00481082 1.71372 82 80 64
0.223005 0.0720053 1.76894 48 34 13
-0.309734 0.142175 1.98016 153 133 97
-0.275203 0.154808 1.97583 150 146 124
0.175591 0.121789 1.83977 74 54 26
0.192234 0.120793 1.80033 38 19 0
-0.290824 0.162208 1.90413 93 86 72
0.0668224 0.144093 1.72214 22 18 4
0.111761 0.160878 1.7911 107 96 51
0.239962 0.187358 2.03378 107 90 62
0.0332938 0.225671 1.78718 108 108 77
0.0556573 0.227324 1.78448 104 106 83
0.0129001 0.23332 1.69235 97 98 75
0.0861714 0.229234 1.77882 122 118 88
-0.0156428 0.260504 1.80534 168 162 121
0.27307 -0.0947923 1.73025 96 96 88
0.193946 -0.0680507 1.66261 97 96 94
0.00603549 -0.0402497 1.61655 66 70 78
0.252632 -0.0295437 1.74133 24 26 30
-0.347509 0.126888 1.93663 76 78 84
0.166982 0.0893314 1.72557 40 29 10
-0.058032 0.173058 1.84176 142 141 124
-0.0948007 0.180921 1.91243 83 83 75
0.0160736 0.171197 1.79342 88 76 36
0.0865454 0.168241 1.78012 65 64 33
0.0670805 0.19902 1.81778 96 95 67
-0.135263 0.217192 1.83538 88 89 86
0.0589616 0.207428 1.80548 42 40 26
0.0785314 0.20564 1.80249 84 80 56
-0.021296 0.264131 1.85697 98 69 63
0.073111 0.24729 1.77624 94 56 48
0.233992 -0.0825778 1.70267 168 123 92
0.361273 -0.102281 1.84582 194 190 174
0.193855 -0.0687174 1.66724 117 118 114
0.288898 -0.0652361 1.77836 40 40 30
-0.0363228 -0.0427863 1.89783 89 44 42
0.236774 -0.0472876 1.70551 102 91 69
0.24436 0.000502149 1.725 26 26 28
0.226508 0.0735715 1.74938 56 46 22
0.0759113 0.105418 1.70381 80 69 45
-0.0125865 0.252018 1.74975 146 119 106
0.119716 0.241159 1.77858 106 68 55
0.0503999 0.253242 1.8079 138 96 78
-0.0745161 -0.0332544 1.63641 169 71 54
0.0621771 -0.0110636 1.62744 164 130 90
0.270736 -0.00464006 1.75507 130 108 59
0.0890335 0.0765888 1.67991 146 126 80
0.171164 0.0805473 1.73029 112 100 66
0.0247426 0.2189 1.78138 134 139 104
0.144708 0.240081 1.84222 160 122 99
0.0519314 0.254649 1.80821 106 66 54
-0.0638862 -0.0404925 1.64268 165 44 34
-0.010219 -0.0405518 1.615 138 136 134
0.1404 -0.0470155 1.66617 132 25 21
0.0411827 -0.00673181 1.63461 182 170 125
-0.149256 0.149598 1.90104 118 116 103
-0.00232374 0.211322 1.82914 45 46 32
0.0445578 0.249801 1.80053 164 154 110
0.103206 -0.181474 2.00665 236 236 218
-0.184565 -0.0671726 1.71668 204 205 174
-0.212683 -0.0613195 1.75038 152 152 146
0.16425 -0.0815946 1.81647 50 46 52
0.164047 -0.0597237 1.64684 98 28 8
-0.160295 0.0373074 1.77045 117 118 109
0.342001 -0.00943489 2.22418 106 58 42
-0.107325 0.0610314 1.71333 112 114 107
-0.0014497 0.0554672 1.66394 122 99 84
-0.197906 0.066874 1.99853 18 16 17
0.025966 0.0822233 1.67836 168 134 90
0.427143 0.04592 2.06739 110 63 48
0.0337937 0.0836089 1.68032 164 126 82
0.0185527 0.0863064 1.68372 118 78 33
0.213249 0.0744426 1.76739 121 108 79
0.435643 0.0614034 2.03621 84 74 60
0.450161 0.071253 1.98675 118 83 76
-0.262081 0.134713 2.0366 145 145 126
0.110632 0.11493 1.69219 56 46 8
-0.220265 0.147461 2.02546 156 152 136
-0.27232 0.154923 1.97344 154 152 131
0.427525 0.118346 1.86971 99 88 83
0.084498 0.145678 1.76694 102 86 54
0.403143 0.129991 1.89722 101 84 54
0.16563 0.151873 1.84215 56 38 2
0.29389 0.145099 1.98456 69 54 45
0.321682 0.142049 1.95341 88 70 52
0.354474 0.142204 1.94677 90 77 65
-0.247456 0.192503 1.85068 104 101 92
0.33454 0.150689 1.96624 96 85 74
-0.216063 0.195331 1.89072 96 92 74
0.0210118 0.175634 1.81241 76 62 31
-0.182598 0.195073 1.89694 119 114 96
0.0513764 0.174649 1.81866 116 108 74
0.163775 0.197022 2.79812 60 46 26
0.0219833 0.178166 1.92367 109 101 70
-0.260233 0.203799 1.74792 149 123 112
0.295904 0.170489 1.87965 82 71 54
0.307297 0.169715 1.87985 96 90 74
-0.112925 0.208999 1.86927 120 119 108
0.246414 0.194242 2.1239 60 48 29
0.00237476 0.204589 1.85998 142 128 92
0.247346 0.186661 1.88243 72 56 14
0.232523 0.189671 1.87135 49 29 9
0.055995 0.2067 1.82306 80 80 57
-0.0972494 0.222146 1.83353 101 102 86
0.099899 0.203835 1.80915 92 78 34
0.31201 0.182033 1.71845 98 83 52
0.107536 0.208233 1.82303 82 72 32
-0.0177132 0.223788 1.80538 114 114 80
-0.0744971 0.239355 1.81521 66 62 40
0.113532 0.220358 1.76151 124 114 75
0.0332898 0.235438 1.76183 53 51 28
0.0402699 0.237663 1.77345 144 142 120
0.084954 0.236006 1.76498 122 116 101
0.0663441 0.237824 1.7353 55 52 32
0.183935 0.225437 1.61241 64 60 46
0.27293 -0.098405 1.736 124 122 118
0.238382 -0.0834822 1.68898 151 86 79
0.212021 -0.0720074 1.67244 24 16 12
0.194668 -0.0683017 1.66042 111 110 108
-0.0939144 -0.047048 1.64844 221 221 182
0.235127 -0.0434699 1.69736 98 93 66
0.231254 -0.0392424 1.68902 77 72 56
0.253024 -0.0241438 1.73929 34 20 19
-0.215375 0.0115449 1.81613 170 168 164
0.353406 -0.00785194 2.15828 102 50 44
0.343404 -0.00854901 2.20679 106 58 42
0.182174 0.0363208 1.69781 88 72 40
-0.10518 0.071225 1.71798 82 79 70
0.409723 0.0263457 2.12975 56 52 50
0.0048007 0.0746188 1.68221 168 136 100
0.0180671 0.0858365 1.68307 120 77 33
0.106698 0.0794163 1.69118 132 101 56
0.434429 0.0570956 2.06012 64 55 50
0.183317 0.0845411 1.73963 80 69 49
-0.293827 0.122538 2.03816 154 150 118
0.0572443 0.111831 1.70505 40 36 25
-0.233248 0.140513 2.03425 153 154 130
-0.284285 0.154705 1.95389 86 84 71
-0.277977 0.154586 1.98392 120 114 94
-0.255667 0.152172 1.99223 64 64 59
0.443153 0.105536 1.90953 110 63 56
-0.221157 0.163022 1.99007 125 126 111
0.125024 0.132236 1.74849 130 115 70
0.0666771 0.1402 1.74065 70 61 32
-0.300019 0.17248 1.8262 119 111 91
0.0918452 0.146766 1.74605 34 21 0
0.325234 0.137029 1.93986 99 84 64
0.166625 0.14781 1.92439 50 26 0
-0.170094 0.177738 1.94356 172 172 146
-0.163567 0.177206 1.93739 152 150 128
-0.247778 0.192926 1.90645 148 148 132
-0.045748 0.175119 1.87546 115 110 76
-0.153247 0.188999 1.91891 92 89 72
-0.0899621 0.184672 1.90079 118 117 98
0.327923 0.156191 1.92187 84 77 68
0.240097 0.170661 2.04531 63 42 20
0.395827 0.154086 1.77429 30 21 18
-0.136374 0.208172 1.85711 161 165 137
-0.0539368 0.201356 1.8577 158 158 120
0.381564 0.163017 1.74384 108 43 32
-0.17601 0.213341 1.82927 105 102 84
-0.0494239 0.206419 1.85391 85 82 66
-0.0698974 0.210313 1.84869 52 49 40
-0.0582084 0.21141 1.83487 164 166 138
0.0631657 0.201505 1.82378 38 36 16
0.0647684 0.204901 1.83167 45 42 28
0.244941 0.194217 1.84578 56 38 15
-0.0431603 0.220969 1.81829 148 145 108
0.0755448 0.211366 1.81785 106 102 66
0.107042 0.209368 1.81993 104 95 56
0.0942693 0.211907 1.81598 124 118 75
-0.0891244 0.237167 1.62962 91 88 79
0.175017 0.233991 1.8139 50 44 39
-0.185996 -0.0661916 1.71504 212 208 176
0.297882 -0.0965935 1.76983 101 58 38
0.325334 -0.104712 1.88215 170 162 156
-0.175399 -0.0488984 1.70168 191 140 116
0.209284 -0.0722716 1.67876 20 12 20
-0.140902 -0.0413781 1.67802 196 166 124
0.325416 -0.0458611 1.89007 134 127 120
0.223197 -0.025085 1.70393 80 77 56
0.272907 -0.0310987 1.77172 85 73 52
0.318914 -0.0398297 1.86938 168 161 158
0.0476118 0.0323642 1.64794 163 132 97
-0.112494 0.0466922 1.70415 174 164 138
-0.118434 0.0495213 1.71105 106 102 86
-0.110599 0.0757382 1.71887 76 74 57
0.422595 0.0296571 2.08269 64 58 53
-0.154273 0.0799417 1.80011 134 136 112
0.193451 0.0571995 1.72092 82 68 26
-0.354024 0.0959659 2.02653 98 95 96
-0.295077 0.10682 2.07662 165 160 121
0.444956 0.0576255 2.04015 69 60 62
-0.286762 0.127291 2.03607 73 70 59
-0.24399 0.130633 2.08549 142 139 121
-0.324226 0.165835 1.83994 211 201 168
0.441067 0.108297 1.90144 127 69 66
0.418699 0.114227 1.91694 118 100 74
0.0705855 0.142064 1.74383 30 19 4
-0.25998 0.176662 1.91537 88 78 64
0.335649 0.129912 1.96946 83 69 61
-0.200757 0.176468 1.95513 154 156 134
-0.185103 0.180226 1.95396 150 150 128
-0.248112 0.192957 1.8541 104 101 92
0.195414 0.182785 2.35299 56 38 18
-0.0628489 0.208684 1.84744 72 74 54
-0.0493057 0.207186 1.84993 81 78 62
0.00175822 0.203539 1.84643 162 152 113
-0.0901081 0.214929 1.85463 104 104 86
-0.00359578 0.207533 1.84344 68 62 47
-0.0862101 0.219777 1.82561 109 110 94
-0.0202903 0.214284 1.8231 114 111 72
0.232694 0.195417 1.85306 122 109 64
-0.188736 0.226692 1.70129 141 136 120
-0.0621595 0.23356 1.85634 116 112 78
0.268219 0.214462 1.91824 78 36 26
0.0387142 0.230294 1.77917 38 36 22
0.0956333 0.229002 1.76186 86 80 53
0.044 0.236654 1.80169 90 84 54
-0.0851704 -0.185873 1.92551 188 181 154
0.318885 -0.139454 1.8618 118 111 104
-0.144411 -0.0575889 1.68208 203 186 150
-0.106189 -0.0476027 1.65604 82 84 102
-0.05585 -0.0406466 1.64028 146 30 25
0.228854 -0.0641718 1.69373 98 30 19
-0.122048 0.0126038 1.69716 193 162 122
0.350353 -0.00467388 2.14107 108 52 43
0.419716 0.0285582 2.08306 61 56 56
0.160776 0.0867558 1.72425 136 121 76
0.439641 0.0733876 2.02019 120 72 64
0.095339 0.105256 1.71794 50 44 25
-0.232523 0.141063 2.03398 153 154 130
0.433749 0.107851 1.91597 128 90 75
-0.268041 0.1763 1.90978 158 150 124
-0.20884 0.207207 1.90007 91 86 81
-0.116178 0.200523 1.86353 120 115 98
-0.138447 0.207948 1.86336 162 164 138
0.00640079 0.201585 1.82819 160 154 116
0.318614 0.191104 1.88805 135 125 100
-0.0941085 0.231311 1.84171 112 111 93
0.00584801 0.227613 1.78329 40 36 27
-0.0898278 0.241772 1.81569 102 100 78
-0.0610321 0.236478 1.76617 74 70 50
-0.0488965 0.241432 1.79801 74 72 51
0.0437955 0.236589 1.75998 100 98 78
0.0791713 0.24169 1.74444 153 150 124
0.0661486 0.238313 1.59643 122 66 52
0.755598 0.298123 1.60275 171 166 168
-0.200957 -0.069194 1.73126 74 72 89
0.29706 -0.0994358 1.78145 126 80 61
-0.173412 -0.0590025 1.70399 168 81 71
-0.0143416 -0.0404976 1.62232 106 106 112
-0.161848 0.0230396 1.7472 172 168 147
-0.144717 0.0233024 1.72239 162 157 124
0.181008 0.0369664 1.6991 85 70 37
-0.0961435 0.0720769 1.71894 138 130 100
0.1852 0.0796953 1.74307 100 93 70
0.446899 0.0737406 1.99291 122 66 62
0.434565 0.10676 1.93503 144 100 92
0.128209 0.130074 1.74865 140 124 68
-0.141352 0.171797 1.96787 144 146 122
-0.203314 0.184788 1.90462 96 94 82
-0.184863 0.19595 1.92698 166 164 134
0.400227 0.149709 1.81226 50 43 46
0.0116298 0.210016 1.8118 79 72 59
0.301887 0.188091 1.89898 116 100 74
-0.0697022 0.237825 1.80198 65 61 39
-0.0256394 0.242724 1.82329 74 71 52
0.0887024 0.231075 1.77638 88 82 61
0.238413 -0.0840168 1.69628 184 126 118
-0.168525 -0.0487524 1.70053 182 82 71
-0.0714583 -0.0431302 1.63977 183 96 80
-0.040868 -0.0438545 1.62881 204 191 154
-0.0753342 -0.0324314 1.63327 162 56 42
0.320873 -0.017588 2.22497 52 41 42
-0.341174 0.083068 2.03995 154 70 65
0.078922 0.111457 1.70384 26 18 10
-0.267498 0.167333 1.94871 135 133 103
0.102265 0.136757 1.81838 65 48 24
-0.106829 0.205488 1.86352 42 43 36
0.372104 0.166718 1.75333 132 49 38
-0.046756 0.212303 1.7754 108 108 82
-0.0956866 0.232734 1.87877 144 144 116
0.0792475 0.224024 1.79762 150 146 104
0.0895342 0.232109 1.76481 90 86 64
-0.221901 -0.0839958 1.77289 202 194 168
-0.2194 -0.0747107 1.80566 131 128 124
0.299641 -0.102669 1.78885 112 60 48
0.271228 -0.0875468 1.74058 29 26 34
-0.113589 -0.0382475 1.65737 52 59 88
0.0281739 -0.0297138 1.6047 146 32 22
-0.34617 0.0826847 2.0613 152 64 58
0.412933 0.0280649 2.06742 57 52 52
-0.350032 0.114894 1.94766 212 202 188
0.17896 0.112646 1.7886 118 108 72
0.440813 0.106104 1.88058 134 74 72
-0.121448 0.170284 1.84842 172 172 144
0.0471489 0.199273 1.8294 110 105 75
0.333073 0.18619 1.90844 81 72 73
0.316625 0.189448 1.7059 167 112 86
-0.00249623 0.225478 1.7942 38 34 28
0.112084 0.242658 1.80394 166 88 62
0.125467 0.234964 1.61867 174 166 124
0.290863 -0.113399 1.76509 198 189 166
0.300862 -0.116328 1.78229 98 43 38
-0.135658 -0.042663 1.68782 110 110 112
0.234683 -0.0476039 1.70186 109 94 62
0.321281 -0.0189343 2.18016 100 94 96
0.0134426 0.0619943 1.66803 147 142 118
0.0563901 0.110366 1.71182 16 12 6
-0.212402 0.173859 1.91133 172 168 132
0.429488 0.121225 1.85138 78 68 69
-0.0893872 0.174468 1.92502 124 125 95
-0.137103 0.193978 1.92708 167 166 142
0.356164 0.167531 1.91559 140 94 68
0.36219 0.168636 1.69121 148 136 97
0.344658 0.178694 1.71093 134 124 110
0.0313644 0.245933 1.82262 128 114 87
-0.165368 -0.0602684 1.68645 166 78 72
-0.0943353 -0.00834694 1.65891 182 160 96
-0.111819 0.0295479 1.69231 194 184 158
0.0312456 0.0230324 1.64168 104 84 66
-0.103866 0.0508282 1.70162 172 167 140
-0.0970568 0.0787201 1.71566 59 53 34
0.0465386 0.230404 1.67865 68 65 42
-0.117048 0.0150348 1.6833 184 155 118
0.0732323 0.0151462 1.64221 109 68 38
0.0774044 0.0184742 1.64615 105 66 38
-0.00120967 0.0559245 1.66305 116 92 76
0.206002 0.0892808 1.76383 62 44 10
0.168064 0.099187 1.74049 27 20 6
-0.275723 0.145817 2.00006 156 154 128
0.103269 0.115707 1.72336 48 35 4
0.0540626 0.141615 1.75821 75 68 42
0.149376 0.153192 1.81799 78 60 14
0.19972 -0.0526839 1.66355 29 16 16
-0.147481 0.00368333 1.70582 164 173 152
-0.106922 0.20085 1.904 82 81 70
0.247039 0.169956 1.88139 78 63 35
0.0247059 0.200562 1.83006 120 106 71
0.0396302 0.219278 1.59768 77 73 55
0.172412 0.0123869 1.67649 82 86 78
0.0160345 0.0848379 1.68389 118 70 32
0.0548615 0.173787 1.79735 86 82 54
0.0301838 0.22433 1.80488 138 134 109
-0.0876585 0.0179409 1.66955 182 148 109
0.0431309 0.0218998 1.64204 143 108 78
0.0168824 0.0698389 1.67316 164 139 104
0.101397 0.112486 1.71405 34 25 9
-0.10203 0.167315 1.82758 136 131 98
0.0169735 0.208855 1.80117 92 85 56
-0.013081 0.0658138 1.66666 176 156 118
0.0270228 0.0632406 1.6709 151 103 72
0.215452 0.0746532 1.74718 82 70 44
-0.0322685 0.225675 1.80921 140 134 94
0.0169839 0.0090809 1.63275 172 136 104
-0.148825 0.0402663 1.75647 80 82 66
-0.269731 0.108575 2.09752 63 56 36
-0.263228 0.112218 2.08477 154 146 118
-0.269486 0.11434 2.08347 59 52 32
0.10459 0.105754 1.70832 118 112 92
0.281057 0.153181 1.9833 57 50 39
0.303879 0.183749 1.78358 108 94 60
0.269048 0.203224 1.81419 116 100 70
0.110495 0.0647958 1.67571 120 89 51
-0.288317 0.126158 2.0333 80 74 60
-0.147399 0.175404 1.7487 166 164 134
0.244828 0.168386 1.89255 57 40 23
-0.118394 0.201471 1.89103 114 114 96
0.15499 0.231982 1.61062 116 54 42
0.0758079 -0.0310537 1.62313 39 34 34
-0.0947776 -0.00717176 1.663 186 158 100
0.250475 -0.0287873 1.72883 22 24 30
-0.0220163 0.0102227 1.64396 168 147 81
0.0899594 0.0726825 1.68062 152 122 79
0.184799 0.093939 1.75235 31 16 2
0.311515 0.135406 1.92631 80 66 50
0.156953 0.229023 1.60314 110 38 16
-0.14279 0.0819541 1.71929 129 124 98
0.0629397 0.199003 1.8165 86 82 58
0.204885 0.0524391 1.73391 126 104 66
-0.218116 0.126612 2.09745 51 48 31
-0.0669317 0.23083 1.84449 156 148 112
0.185221 0.237449 1.85375 126 48 32
-0.0881923 0.0173422 1.66912 182 148 111
-0.115197 0.0153195 1.683 178 158 118
-0.0848629 0.103769 1.73599 110 102 60
-0.243819 0.181503 2.26181 142 138 114
0.129104 0.142556 1.04657 136 126 104
0.172794 0.0370668 1.68984 84 68 37
-0.17326 0.155742 2.01938 136 136 114
0.071228 0.149283 1.75234 66 48 6
0.0851088 0.0212314 1.64642 150 132 94
-0.122259 -0.0496411 1.66937 66 69 84
0.0223192 0.0808556 1.68238 150 115 76
0.102543 -0.0355088 1.6269 52 36 26
0.125904 -0.0198235 1.6435 130 95 60
0.321935 0.193246 1.78632 154 140 98
-0.0997116 0.0620877 1.70333 100 96 92
-0.184818 0.148509 1.7411 100 92 71
-0.157549 0.161277 1.64288 164 158 129
0.186757 -0.111159 2.04447 96 58 54
0.0952449 0.136086 1.69469 92 79 44
0.0819268 0.242802 1.74971 108 100 86
0.19645 0.0560442 1.71832 110 95 54
0.0341431 0.246294 1.8106 82 73 52
0.0808813 0.246095 1.79619 148 138 104
-0.11173 -0.00936802 1.66426 184 164 100
0.0202484 0.0499269 1.65524 134 106 70
-0.0973986 0.101346 1.73351 68 56 42
-0.295376 0.116103 2.05868 152 146 119
0.410986 0.141844 1.8945 138 100 90
0.340135 0.192607 2.23507 96 30 20
-0.082811 0.211096 1.83029 99 100 84
0.331345 0.184621 1.96593 175 140 111
-0.154488 0.0395441 1.76189 88 87 76
-0.270196 0.10829 2.0978 80 73 54
-0.272509 0.114629 2.08829 72 66 48
0.0635346 0.111305 1.70898 21 9 3
0.160801 0.128078 1.78001 129 113 74
-0.0914294 0.168044 1.90193 167 164 144
-0.0467735 0.218213 1.82795 79 76 51
0.245596 -0.0477552 1.71545 100 92 65
-0.26871 0.123039 2.07902 152 150 125
0.102293 -0.0361304 1.62755 67 50 44
-0.355483 0.0980342 2.02858 72 68 72
0.0328952 0.198768 1.81783 111 107 80
-0.210852 0.0213119 1.85029 136 136 132
-0.363641 0.10382 2.01941 214 190 172
-0.00926791 0.129338 1.72412 102 104 82
0.161469 0.125797 1.65797 96 80 42
0.408267 0.146281 1.9161 94 53 52
0.342754 0.172284 2.09074 102 92 77
0.347953 0.176412 1.91339 62 22 14
0.0204223 0.208977 1.82525 157 144 97
0.10733 0.219102 1.79727 93 80 51
0.0591291 0.170189 1.80345 69 65 40
-0.00557826 0.210271 1.81291 110 100 78
0.325987 0.191874 1.88363 86 42 43
0.383997 0.157518 1.90501 117 98 82
-0.173562 -0.0598793 1.70372 166 86 74
0.281526 -0.0871492 1.74783 58 50 32
-0.130822 0.0896625 1.76762 52 50 30
0.0620428 0.0809863 1.67619 160 111 72
-0.0984999 0.0993518 1.75231 113 109 82
-0.27961 0.143906 1.99446 153 152 125
-0.266836 0.158887 1.97614 138 131 116
-0.264585 0.16274 1.94238 92 86 61
-0.214528 0.159814 1.98954 71 68 62
0.279064 0.158491 1.94573 78 64 49
0.300988 0.17294 1.90072 112 105 88
-0.0507009 0.22464 1.82131 162 160 131
-0.174866 -0.0575955 1.71098 156 42 31
0.100911 -0.0351121 1.63148 66 50 37
-0.239483 0.0573611 1.90981 110 73 56
0.138654 0.12887 1.75879 105 88 48
0.150736 0.135728 1.77575 76 56 16
-0.18317 0.194367 1.89794 116 114 97
0.344456 0.176902 1.86597 162 144 112
-0.217069 -0.0631231 1.75879 186 183 175
-0.141179 0.218877 1.84325 117 115 100
-0.0638453 0.224814 1.79331 163 158 122
0.319565 0.190894 1.69738 112 40 24
-0.0948584 -0.049526 1.65221 169 166 137
-0.163902 0.0223537 1.77404 171 167 138
0.235515 0.189546 1.9114 98 76 36
0.0993683 0.214476 1.80978 138 132 90
0.324477 -0.107147 1.89704 166 160 156
-0.0950803 0.112222 1.75146 151 142 106
0.094198 0.234288 1.74917 120 111 89
0.267789 -0.0849436 1.74182 36 29 29
-0.165298 0.193226 1.91304 90 88 77
0.298863 0.18952 2.04963 98 86 62
0.332795 0.189062 1.8402 87 43 42
0.321995 -0.117272 1.9296 160 154 153
0.196767 -0.068088 1.65836 80 78 78
-0.0145585 0.0277592 1.65016 166 153 128
0.222729 0.0362867 1.71859 61 61 55
0.0466256 0.169708 1.7742 82 74 43
0.128913 -0.211512 2.05135 244 244 230
-0.170621 0.0428419 1.76316 174 176 160
-0.190508 0.0430631 1.81112 139 140 130
0.359824 -0.0085122 2.2177 102 72 61
-0.14098 0.0520172 1.74001 82 84 75
0.402578 0.012455 2.14265 119 78 80
-0.141934 0.0802354 1.76079 156 156 131
-0.133042 0.0854028 1.75719 80 78 54
0.280628 0.0496377 1.96481 44 38 28
-0.185019 0.0915827 1.85088 94 86 52
-0.0976751 0.129911 1.77847 74 67 30
-0.0920612 0.129363 1.77838 129 126 101
-0.326988 0.164137 1.85224 196 190 162
-0.201946 0.156594 1.94434 164 162 146
0.0633942 0.149866 1.75404 62 36 8
-0.21987 0.192918 1.89656 89 86 75
0.0892726 0.169165 1.80512 42 32 4
0.331916 0.15723 1.9068 94 85 67
-0.0975906 0.216946 1.8424 116 120 96
0.300192 -0.128348 1.8726 94 47 40
0.303039 -0.115783 1.77516 112 58 54
-0.0872152 0.0207988 1.67553 185 155 117
-0.198256 0.0357501 1.84882 177 178 163
0.326724 -0.0197935 2.26127 68 60 46
-0.16914 0.0442046 1.75338 132 132 120
-0.138862 0.0446283 1.72072 182 183 161
0.289535 0.00573808 2.27872 68 56 32
-0.145896 0.0862408 1.77308 56 56 38
0.282164 0.0523028 1.96364 47 42 32
0.438913 0.0750938 2.01074 122 80 68
0.0741031 0.115015 1.72369 30 18 8
-0.0999065 0.130265 1.7872 74 67 30
-0.084918 0.13104 1.77429 58 53 26
-0.207972 0.177638 1.94051 126 121 102
-0.258078 0.182333 1.91586 104 99 84
-0.231144 0.182564 1.90871 108 109 90
0.27605 0.177419 1.88263 128 117 89
-0.106056 0.209943 1.8548 85 86 70
-0.0425954 0.204066 1.83975 150 148 115
-0.0979733 0.221917 1.83418 94 96 75
-0.0902981 0.221023 1.8382 112 112 102
-0.0442133 0.220471 1.81194 70 68 38
-0.0927341 0.228397 1.79262 60 59 43
0.0181152 0.225488 1.81897 114 116 94
0.305872 0.196728 1.68433 98 34 20
0.022748 0.23018 1.80377 134 132 104
0.00720812 0.228623 1.6884 124 124 93
0.319644 -0.136337 1.84426 88 80 75
0.349263 -0.00103777 1.95457 70 66 65
0.290421 0.00724843 2.25472 52 44 27
-0.175081 0.0588987 1.79559 72 66 49
0.406726 0.00992245 2.13837 174 162 160
0.396322 0.0175858 2.12866 112 68 60
0.287846 0.0392429 1.9563 44 44 35
-0.182254 0.0866825 1.8279 174 164 119
-0.124383 0.0899153 1.7538 68 66 44
-0.150822 0.138461 1.90594 94 94 79
-0.0834283 0.131424 1.76914 81 78 51
0.214043 0.108919 1.8022 58 44 15
-0.136663 0.143769 1.86975 124 124 99
0.427545 0.124986 1.86179 83 75 68
-0.221311 0.181957 1.92694 130 124 98
-0.118514 0.205559 1.8737 50 48 38
0.273092 -0.0963172 1.728 121 118 110
0.297242 -0.0229837 2.16139 116 68 64
0.288414 0.00905391 2.25738 53 47 34
0.411695 0.0114059 2.0538 173 165 162
-0.200693 0.0686599 1.75531 104 68 70
-0.127773 0.0722514 1.75162 70 67 51
-0.102941 0.0966406 1.73441 36 30 20
-0.236175 0.120186 2.00949 102 100 86
0.447494 0.0730487 2.00512 118 68 62
-0.343869 0.149084 1.88972 212 201 174
0.20428 0.105572 1.78358 103 88 53
-0.0982438 0.13135 1.78573 70 62 30
-0.00919086 0.129003 1.72315 108 114 88
-0.331138 0.15808 1.8564 110 109 109
0.0679234 0.141715 1.74055 36 28 6
-0.225189 0.171436 1.96697 115 112 90
-0.246986 0.174581 1.93771 110 106 95
-0.237926 0.177378 1.93021 156 150 128
-0.250431 0.193544 1.85595 106 104 93
0.328552 0.156158 1.91839 78 72 64
-0.138692 0.197546 1.96203 162 161 131
-0.0403408 0.228118 1.80338 157 158 121
0.31511 -0.138113 1.87901 99 90 85
0.294633 -0.0213536 2.16192 108 46 40
0.323804 -0.0188581 2.23791 52 46 46
0.354558 -0.00917085 2.21044 96 50 46
-0.214059 0.0578654 1.82452 216 210 185
0.295006 0.0107608 2.19908 50 44 30
0.439172 0.0569094 2.06601 68 59 62
-0.287489 0.135637 1.98877 120 114 88
0.20813 0.108277 1.83164 52 36 6
0.445758 0.0904081 1.95926 78 72 74
-0.32993 0.166047 1.85275 213 208 179
-0.0957467 0.160575 1.90341 64 61 38
0.431415 0.121494 1.81452 85 74 74
0.321933 0.189531 1.66331 118 40 22
-0.0421806 0.229871 1.78581 104 100 68
0.0399712 0.24785 1.81339 171 164 126
0.0799012 0.240788 1.71951 100 97 81
0.31775 -0.15322 1.90526 150 136 127
-0.194352 -0.0698578 1.73548 180 176 150
0.307488 -0.0537254 2.0488 162 155 150
0.355442 -0.00562048 2.16621 112 58 50
0.415151 0.0281832 2.06443 62 54 54
-0.140216 0.0801967 1.76524 141 140 110
-0.143964 0.0969967 1.74821 161 156 121
-0.122428 0.115541 1.80197 56 53 32
0.445131 0.0839619 2.00647 83 77 78
0.172952 0.123815 1.80483 77 60 28
0.439864 0.106837 1.89742 132 79 75
-0.228736 0.171254 1.91926 149 144 121
-0.227723 0.174797 1.87349 93 92 80
-0.287068 0.187362 1.77701 93 90 94
0.417333 0.136974 1.77572 128 60 54
-0.240138 0.205649 1.72068 172 161 137
-0.234493 0.21189 1.72454 94 94 87
-0.0171659 0.229364 1.80294 115 113 82
0.123603 0.234108 1.62367 162 152 108
0.14084 0.231665 1.60554 143 64 42
0.290997 -0.117931 1.79523 188 180 150
-0.0167803 -0.0442625 1.63761 140 138 132
-0.0478978 -0.0532595 1.78158 64 69 85
0.266135 0.0093385 2.2768 98 90 66
0.177848 0.120666 1.77677 114 103 66
-0.189334 0.204295 1.82357 92 87 85
-0.238236 0.210127 1.73301 136 133 122
0.222805 0.194617 1.87876 54 36 15
-0.0308279 0.223076 1.79339 152 150 105
-0.173165 -0.057647 1.70934 160 42 31
0.0394242 -0.0425669 1.63497 149 22 15
-0.154515 0.0264886 1.79908 170 160 132
-0.111595 0.0429565 1.71042 166 157 120
0.314185 0.021953 1.94158 50 46 34
-0.208555 0.0703699 1.76997 158 123 121
-0.195626 0.0787629 1.83659 173 160 111
-0.359903 0.109685 2.00618 145 80 72
-0.169341 0.191597 1.92209 129 126 114
-0.235742 0.210348 1.72776 126 122 114
0.220209 0.213964 2.26928 134 121 87
0.318322 -0.170252 1.92194 136 132 126
0.325088 -0.152168 1.86274 114 102 99
0.278969 -0.0126514 1.78832 32 34 29
0.315137 -0.0144275 1.9647 112 61 53
0.282221 0.000610604 1.80599 34 39 32
-0.166399 0.0372496 1.77956 102 104 94
-0.152358 0.0422894 1.73495 192 194 176
-0.164756 0.0662249 1.78741 135 124 96
-0.148354 0.0663237 1.775 48 46 34
0.414315 0.0202761 1.9987 106 68 64
-0.13933 0.103746 1.80526 140 132 92
-0.284316 0.126765 2.03255 67 66 60
0.136362 0.0967464 1.78814 38 32 5
-0.118136 0.118048 1.82732 27 22 10
-0.0908329 0.130795 1.79215 70 68 42
-0.259512 0.1615 1.98383 86 82 73
0.173804 0.129185 1.78692 52 34 4
-0.117853 0.156028 1.89509 179 170 140
0.0766391 0.166459 1.80501 62 54 21
-0.108463 0.200667 1.8766 124 124 108
-0.213627 -0.0720722 1.76912 86 86 85
-0.23301 -0.0761153 1.83943 185 182 158
0.309415 -0.0212463 2.28191 62 55 46
-0.185924 0.0475137 1.84321 104 106 94
-0.204922 0.0561386 1.8628 100 88 69
-0.136747 0.0583524 1.74038 126 129 115
-0.1535 0.0647273 1.78979 40 36 32
-0.127803 0.0762884 1.76518 61 55 36
0.282928 0.0453364 1.9535 86 77 56
-0.258531 0.0915927 2.03588 170 162 120
-0.23215 0.117526 2.00512 106 104 80
-0.163911 0.130978 1.91112 88 84 70
-0.34677 0.149805 1.89606 214 205 176
-0.0806917 0.130186 1.74237 120 115 86
-0.267156 0.161218 1.95437 92 84 61
-0.268154 0.176498 1.93493 106 96 82
0.391805 0.13598 1.92446 108 92 63
0.110848 0.160212 1.80017 76 63 23
0.0275053 0.168864 1.8148 130 120 70
0.233733 0.164966 2.06547 60 46 20
0.297337 0.171666 1.88179 87 74 60
-0.0642566 0.201256 1.81885 146 146 120
-0.106728 0.209873 1.88218 92 94 76
-0.107675 0.229054 1.89239 44 46 33
0.274731 0.197875 1.83641 108 88 57
0.281546 -0.106018 1.77207 22 16 22
0.316126 -0.114691 1.83075 83 74 66
-0.165812 0.0241022 1.75655 186 184 164
0.34893 -0.00481996 2.15767 109 62 48
-0.296309 0.0589446 2.06271 147 80 62
0.410253 0.0281702 2.13093 68 64 58
-0.274814 0.102516 2.1256 171 167 126
-0.245317 0.117971 2.04388 109 107 86
-0.112529 0.119656 1.81851 24 24 12
-0.265757 0.166226 1.95202 144 139 108
-0.131228 0.17732 1.92785 170 169 151
-0.141032 0.193421 1.8783 168 168 142
0.297874 0.170301 1.8842 106 92 76
-0.236831 0.210982 1.72436 100 100 90
-0.123379 0.229638 1.72963 110 106 88
0.318587 -0.114074 1.95442 171 165 163
0.220007 -0.0736394 1.69282 136 103 26
0.31715 -0.0176846 2.21376 57 51 44
0.316765 -0.0226394 2.32287 54 48 47
-0.193807 0.0552198 1.83329 116 106 92
-0.320715 0.0585197 2.09396 220 215 194
0.398818 0.0169139 2.09513 134 92 82
-0.19634 0.0847693 1.90185 67 62 38
-0.121111 0.0887746 1.77154 57 56 34
-0.304138 0.100766 2.14515 62 60 49
-0.300588 0.106898 2.09112 169 162 120
-0.243278 0.1118 2.04348 168 163 124
-0.27264 0.12221 2.08663 163 158 131
-0.178735 0.146004 2.00078 139 139 118
0.227673 0.195113 1.84149 50 26 11
0.0740684 0.238887 1.68067 170 166 132
0.148902 0.230219 1.63434 168 96 71
-0.178208 0.0881415 1.85582 52 50 33
-0.285747 0.100568 2.14474 168 160 114
-0.100197 0.0925887 1.72449 42 39 30
-0.0952736 0.120083 1.79527 42 40 20
-0.268989 0.176941 1.99118 102 96 90
-0.150046 0.168642 1.9609 121 122 110
-0.146131 0.1731 1.91535 188 186 146
-0.0414219 0.173527 1.85805 114 110 74
-0.11622 0.193209 1.88431 168 166 138
0.246741 0.171122 1.95102 48 28 6
0.261807 0.183869 1.87901 62 46 16
0.240942 0.194822 1.86928 58 40 17
0.0984363 0.236305 1.61085 74 72 72
-0.205875 -0.069283 1.73851 107 108 118
-0.116343 0.0092356 1.67135 192 164 124
-0.222741 0.0204989 1.88122 123 124 120
0.275095 0.00575189 1.82151 34 36 32
-0.308059 0.0586331 2.06281 218 214 199
-0.359413 0.0665554 2.15962 102 104 112
0.402674 0.0159841 2.1275 112 57 56
0.179989 0.0605049 1.70486 84 52 18
0.43469 0.0424147 2.05084 112 66 60
-0.112584 0.108597 1.76335 158 153 110
-0.256985 0.0576288 1.95762 168 100 87
-0.276971 0.0713566 1.94007 83 86 92
-0.111771 0.0654957 1.77188 190 185 143
-0.149246 0.0799928 1.79696 150 147 114
0.295679 0.0487483 1.89897 49 50 46
-0.27912 0.101838 2.07073 82 81 68
0.439073 0.083981 2.01524 90 82 83
-0.107121 0.146544 1.7839 137 138 114
-0.0808335 0.222588 1.84349 60 58 36
0.234388 0.215904 1.95671 122 112 103
-0.0220795 -0.0323754 1.627 96 99 106
-0.187189 0.0214025 1.76206 146 146 142
-0.189149 0.0259053 1.79854 114 114 110
0.359549 -0.0054271 2.01528 148 108 94
0.396391 0.0145119 2.16157 106 55 48
-0.270152 0.156807 1.86343 107 104 90
-0.104364 0.19799 1.58102 90 90 89
0.271171 -0.0997285 1.7462 44 42 45
0.230326 -0.0228049 1.71056 16 24 24
0.312489 -0.0176462 1.93371 187 171 161
0.0424326 0.0319947 1.66137 168 136 102
0.268357 0.0135724 1.78341 69 70 60
0.0637528 0.0794411 1.67808 166 125 79
0.17197 0.0844249 1.71675 40 29 9
-0.356581 0.12836 1.9466 96 94 90
-0.227601 0.121392 2.03602 60 57 52
0.437544 0.092351 1.9802 94 86 82
-0.244905 0.168197 1.94062 158 154 134
-0.25476 0.171776 1.9517 90 87 74
-0.332416 0.183494 1.86839 168 160 136
0.428882 0.125788 1.84991 66 56 44
-0.0922629 0.180325 1.91011 62 62 47
0.237884 0.166092 1.93242 56 40 6
0.0597154 0.207463 1.831 128 129 102
0.127136 0.234924 1.63323 156 113 84
0.133563 -0.209785 2.02865 238 238 224
0.143768 -0.196392 2.02076 244 243 227
0.309068 -0.0141438 1.95931 78 44 30
0.320524 -0.0185974 2.00905 98 50 44
-0.236571 0.0930035 1.98999 150 142 101
-0.294184 0.10078 2.11213 61 64 50
-0.278361 0.100307 2.08468 89 89 74
-0.288225 0.114882 2.06036 109 105 80
-0.265531 0.114065 2.09752 160 156 121
-0.114931 0.119783 1.82146 30 26 12
-0.16447 0.142404 1.9565 144 142 125
-0.180075 0.152511 2.02442 180 180 148
-0.27737 0.162391 2.0166 78 72 60
-0.166676 0.155779 2.00575 178 178 150
-0.271508 0.164786 1.95696 98 97 66
-0.176698 0.158381 2.01391 112 114 95
-0.259959 0.165506 1.94023 155 150 117
0.440221 0.109442 1.90958 111 67 58
-0.148028 0.158759 1.98608 165 158 129
0.418252 0.113671 1.94281 124 106 78
-0.126436 0.166665 1.91638 156 152 134
-0.273261 0.18296 1.89532 112 107 84
-0.298184 0.186264 1.79598 102 100 98
-0.13356 0.177017 1.93447 168 170 154
-0.199418 0.191552 1.89837 162 166 149
-0.23856 0.195731 1.87377 82 84 80
0.268602 0.185069 1.89901 92 80 54
0.0516364 0.198504 1.25393 103 96 81
0.0138211 0.224151 1.80343 114 116 90
-0.0596386 0.245396 1.85319 145 145 120
0.00946142 0.238039 1.78958 60 57 32
0.0316499 0.237617 1.74817 126 125 102
0.0193449 0.239994 1.74419 72 72 46
-0.0510961 0.239161 1.61811 176 168 145
-0.0388466 -0.165066 1.78213 218 204 172
-0.220273 -0.0815 1.74822 183 160 154
0.299912 -0.117083 1.79309 158 116 99
0.30489 -0.0193607 2.12049 114 61 46
0.367921 -0.00417581 2.00351 84 57 50
-0.203186 0.12947 2.02766 136 128 92
0.178497 0.114209 1.78822 80 72 41
-0.124756 0.148278 1.86299 170 170 140
-0.316151 0.16266 1.84676 92 88 82
0.440436 0.105045 1.94085 118 72 64
-0.166631 0.155664 2.00801 164 164 135
-0.158157 0.159203 1.9755 174 173 152
-0.138425 0.167917 1.95186 158 156 138
-0.274056 0.184725 1.8473 112 109 92
-0.26994 0.18672 1.85331 152 147 121
0.112401 0.162026 1.79127 36 24 0
-0.200677 0.197895 1.86699 166 158 134
0.270074 0.178672 1.88456 73 56 20
-0.21166 0.215763 1.69783 152 136 124
0.0031753 0.234764 1.77051 127 128 104
0.0260011 0.238798 1.76655 126 125 102
-0.046553 0.238 1.60506 158 151 127
-0.0451967 0.240309 1.61911 150 120 102
0.110652 0.230926 1.62257 132 130 110
0.111335 0.236463 1.62034 41 39 38
0.755298 0.299283 1.6043 120 114 117
0.083845 -0.202294 2.02544 228 226 208
0.0762638 -0.197739 2.0739 240 242 226
0.296443 -0.118687 1.814 132 85 68
0.292471 -0.100859 1.79993 125 79 52
0.324009 -0.0476226 1.90039 139 132 122
-0.248255 0.0131096 1.91005 162 162 160
0.305025 -0.0234955 1.98358 188 182 177
0.280641 0.00450301 1.7984 29 30 26
-0.264324 0.16445 2.01088 135 134 118
-0.194306 0.170019 2.01734 150 151 131
-0.151546 0.169338 1.96499 130 129 112
-0.21554 0.18294 1.92693 160 156 128
0.410461 0.139389 1.85764 131 66 54
0.223984 0.170711 1.94293 32 18 3
0.215224 0.19591 1.87493 83 62 20
-0.146752 0.248831 1.78467 100 96 90
0.00206322 0.241453 1.60739 126 120 106
0.0524134 -0.0231922 1.58209 134 64 40
-0.181405 0.0684684 1.78612 145 116 90
-0.336972 0.0865131 2.03312 148 68 61
-0.178996 0.136303 1.95212 80 76 69
-0.144571 0.155121 1.95401 169 165 133
-0.342471 0.175801 1.88191 180 132 123
-0.104369 0.204161 1.86102 58 62 52
-0.219644 0.209186 1.68596 103 102 96
0.270037 0.181306 1.91849 74 62 40
0.0551531 0.214701 1.79589 29 30 18
0.339726 -0.0986147 1.84993 120 108 84
0.308455 -0.0303446 1.97192 194 188 191
0.107793 0.0513713 1.63335 160 142 98
-0.280516 0.10001 2.08083 82 86 68
-0.234071 0.136003 2.08609 154 154 126
-0.0541756 0.192807 1.88131 114 106 77
0.231563 0.194432 1.92397 68 50 22
-0.255517 0.129591 2.12007 136 134 118
-0.333721 0.144029 1.88236 156 83 76
-0.19532 0.147616 2.05162 134 134 109
-0.210042 0.153668 1.96855 140 132 105
-0.319313 0.173081 1.83293 162 102 94
-0.313387 0.191492 1.83661 98 96 99
-0.091309 0.180275 1.96804 158 159 133
-0.279158 0.200364 1.77619 132 106 104
-0.0795404 0.196097 1.91598 152 150 101
-0.168241 0.215246 1.80272 124 122 102
-0.00411802 0.210886 1.83738 90 91 71
-0.0454879 -0.0455961 1.63718 207 188 157
-0.211251 0.0578099 1.90377 84 80 70
-0.180099 0.088546 1.86177 58 54 32
-0.247813 0.145663 2.14137 76 76 74
-0.259283 0.152556 2.08862 117 114 94
0.41094 0.136379 1.82745 162 125 100
-0.0194703 0.197431 1.83765 134 138 112
-0.178426 0.216254 1.83416 125 123 102
-0.0379565 0.204239 1.85034 171 170 128
-0.106988 0.255248 1.81981 113 106 85
0.275288 0.00232549 1.79477 52 56 54
0.207804 0.0774189 1.75505 35 26 4
-0.248459 0.178743 1.83574 108 100 80
-0.246029 0.181733 1.89081 104 98 77
-0.155936 0.185603 1.92978 176 176 155
-0.285444 0.193103 1.78219 122 121 113
-0.259854 0.198265 1.77128 146 141 136
-0.235121 0.209313 1.71756 94 96 89
0.353157 0.176386 1.7191 32 25 24
0.226887 0.194466 1.82261 104 83 38
0.311169 0.180329 1.64237 74 57 34
-0.185733 0.227749 1.69346 107 106 96
0.226107 0.217356 1.63173 110 54 36
0.302832 -0.113642 1.7797 110 55 42
-0.223584 0.182074 1.93276 130 125 96
-0.113098 0.181103 1.9155 132 130 124
0.276105 0.160363 1.93481 108 96 74
-0.215829 0.204708 1.85826 148 146 138
-0.0362375 0.207331 1.84152 150 150 108
0.0534326 0.216035 1.80899 94 97 78
0.756149 0.298831 1.60134 126 122 123
-0.183998 0.189211 1.90274 94 92 82
0.233988 0.172731 1.91301 77 60 28
-0.117993 0.225192 1.80033 169 170 148
-0.0559653 0.231712 1.81235 151 146 108
0.0942649 -0.188751 2.02934 242 244 228
0.250738 -0.0297677 1.73253 29 36 38
-0.256415 0.162299 1.96783 77 74 64
0.400621 0.148553 1.79564 68 62 61
-0.114797 0.236548 1.65806 112 104 94
0.755783 0.29759 1.60208 160 154 156
-0.204846 0.188263 1.92466 97 95 86
-0.138914 0.00655685 1.69317 166 180 158
-0.140751 0.170935 1.96147 164 164 142
0.126602 0.234874 1.67793 154 88 66
0.277007 -0.0221439 1.77563 60 54 44
-0.201413 0.0272723 1.86077 116 115 108
0.18816 0.222561 1.63902 135 126 108
0.233353 -0.0198906 1.71863 24 37 36
0.246967 0.211595 1.63315 100 54 23
0.0525872 0.226261 1.7754 36 36 20
0.253475 0.0343565 2.22915 78 75 62
-0.0479197 0.232828 1.79889 96 92 60
0.166817 0.0113291 1.69569 94 101 92
-0.0602176 0.0533763 1.68435 182 148 110
0.215826 0.170723 1.89273 62 44 16
0.02376 0.0614142 1.68324 146 102 68
-0.283188 0.182912 1.83035 102 102 84
-0.092595 0.255877 1.76631 142 126 112
0.279646 -0.0871047 1.75513 34 30 22
0.277507 -0.0125169 1.79215 28 29 27
0.196664 0.0899046 1.74599 128 116 74
-0.075748 0.23929 1.77571 103 104 87
-0.0499545 0.240523 1.75881 90 86 68
-0.0335537 0.19728 1.87228 171 172 136
0.0335678 0.218666 1.80022 141 129 94
-0.00324829 0.244452 1.78614 80 80 54
0.300492 -0.0278583 2.05639 154 125 119
0.122021 -0.213433 2.03939 252 252 241
0.323493 -0.151483 1.88416 112 73 72
0.318677 -0.142064 1.87456 146 118 110
0.309539 -0.142989 1.90412 108 86 80
0.284453 -0.105434 1.76292 31 22 18
-0.176093 -0.0586209 1.70706 156 75 57
-0.123193 -0.0463377 1.65973 53 58 70
0.127429 -0.0857969 1.89757 38 28 18
0.350904 -0.102015 1.87711 219 216 200
-0.135101 -0.0440333 1.66912 202 188 152
0.26453 -0.0794163 1.73893 49 40 24
0.0590051 -0.0446095 1.61141 124 68 40
0.289459 -0.061397 1.77645 59 60 54
0.287665 -0.0583452 1.767 71 70 62
0.286341 -0.0521552 1.77635 62 60 56
0.328914 -0.0661391 1.92156 204 200 204
0.457528 -0.0697667 1.87876 189 185 188
0.243776 -0.0297201 1.71306 88 90 75
0.250277 -0.0276237 1.72874 30 30 28
0.266709 -0.0283603 1.75931 54 40 18
-0.209055 0.0234479 1.82876 154 148 138
0.279038 -0.0120777 1.78544 30 32 22
0.272083 -0.00323939 1.79783 27 24 20
0.279552 -0.0252739 2.26683 111 62 41
-0.280449 0.136011 2.00391 67 64 44
0.448426 0.0892937 1.94638 78 67 58
-0.235323 0.160375 1.98415 141 141 130
0.0948817 0.146109 1.75612 136 124 70
-0.161551 0.185746 1.94111 179 178 158
-0.092555 0.17948 1.91314 90 87 77
-0.157826 0.187854 1.91601 158 156 140
-0.147759 0.187658 1.92535 90 86 79
0.112049 0.160639 1.79447 50 39 5
0.287753 0.148612 1.99805 78 68 59
-0.213495 0.195839 1.88792 152 146 124
-0.191846 0.194653 1.91183 102 100 84
-0.127355 0.191325 1.89135 180 179 154
-0.258304 0.201216 1.74026 161 130 117
-0.158184 0.195592 1.89096 119 114 94
0.418602 0.137678 1.82295 96 45 32
0.0885213 0.170143 1.80738 48 40 6
0.338709 0.149689 1.92943 106 100 81
-0.267522 0.205577 1.76006 224 208 181
-0.248786 0.20384 1.75597 162 149 136
-0.217939 0.205879 1.79758 144 142 134
0.240317 0.165926 1.93677 95 77 43
0.245864 0.165734 1.93146 28 16 2
0.244707 0.165706 1.90243 49 30 2
0.224948 0.170444 1.94066 31 14 2
-0.212489 0.210517 1.80559 150 148 136
0.25145 0.168561 1.9299 109 92 46
-0.184011 0.209732 1.84027 164 161 149
0.241738 0.171278 1.88386 105 87 43
-0.0866535 0.204768 1.86956 46 46 42
-0.0636457 0.20292 1.87135 166 166 128
0.253566 0.172018 1.91108 42 22 1
-0.16486 0.211456 1.80496 110 105 85
-0.222003 0.214252 1.70906 121 118 108
-0.0944999 0.206906 1.84877 127 128 122
-0.164232 0.21531 1.83559 111 104 88
0.305876 0.170039 1.88794 104 96 79
-0.200185 0.213566 1.68248 186 158 148
-0.179378 0.220906 1.82063 164 160 144
-0.081081 0.212887 1.83696 126 126 110
0.270912 0.178815 1.87962 52 32 4
0.280448 0.178504 1.88224 47 32 2
-0.0579641 0.211433 1.83214 176 178 142
-0.0624207 0.213269 1.8289 60 58 38
-0.113683 0.220052 1.8333 144 144 139
-0.0228999 0.211844 1.8514 116 113 79
0.280697 0.181272 1.86442 54 38 5
0.274108 0.183393 1.86274 50 37 6
-0.185981 0.223465 1.68865 172 161 149
-0.20993 0.233663 1.84988 134 131 125
-0.16766 0.225172 1.77659 144 142 136
-0.106315 0.225292 1.87212 98 100 90
0.0347005 0.208786 1.80869 100 92 46
-0.183081 0.225784 1.68224 108 105 95
-0.053045 0.219824 1.84005 86 84 56
0.237331 0.190795 1.85143 36 20 1
0.0965926 0.205757 1.82689 106 94 48
0.0616186 0.210459 1.8074 48 45 23
-0.126735 0.230228 1.63582 124 110 100
-0.0144015 0.229948 1.80367 46 44 24
0.296444 0.193213 1.67796 90 73 30
-0.112941 0.235071 1.64465 101 90 84
-0.107378 0.237454 1.64852 127 126 113
-0.0258257 0.231772 1.70584 108 104 95
-0.0909391 0.235224 1.6231 180 180 165
-0.00788981 0.236459 1.74432 146 146 122
0.0582475 0.232815 1.74957 120 116 87
0.0619742 0.233752 1.77361 107 108 86
-0.0559561 0.242849 1.70567 112 106 86
-0.0291053 0.232992 1.57932 184 168 146
0.0126312 0.239213 1.74032 80 82 56
0.0927581 0.233533 1.75228 55 51 26
-0.0418875 0.238878 1.60992 162 138 124
0.0546137 0.240098 1.74966 80 74 50
0.223644 0.218276 1.6392 111 50 34
0.0198201 0.239929 1.60455 78 78 72
0.123553 0.230594 1.59021 68 63 49
0.100454 0.235351 1.59051 85 82 74
0.320518 -0.151514 1.89159 129 87 84
0.310465 -0.137811 1.87994 88 80 79
-0.20394 -0.0718089 1.73496 124 126 126
0.286293 -0.104153 1.75578 29 20 16
0.275594 -0.0961614 1.7262 108 108 102
-0.157941 -0.0575795 1.69493 154 86 75
0.248068 -0.0885187 1.72326 128 54 44
0.237908 -0.0830004 1.69376 204 146 130
0.34904 -0.103534 1.88435 210 208 192
0.181247 -0.0482584 1.65927 46 42 34
0.242649 -0.0496481 1.71332 101 87 52
0.23088 -0.0416726 1.7053 68 64 39
0.250012 -0.0181819 1.72748 26 26 22
0.276718 -0.00709973 1.7852 92 87 70
0.286301 -0.0283928 2.26442 157 114 104
0.276393 -0.00191803 1.78465 41 35 28
-0.0116792 0.0755681 1.679 160 126 84
-0.279783 0.131441 2.01208 94 90 74
-0.289092 0.149964 1.98029 152 150 131
-0.304976 0.174176 1.82367 134 86 80
0.14462 0.132902 1.77153 136 126 75
0.103086 0.142051 1.9002 98 87 32
0.174471 0.147087 1.86118 60 37 8
-0.138738 0.185845 1.90739 103 99 90
-0.0425756 0.177275 1.8691 120 115 74
-0.179733 0.192275 1.89945 168 166 144
-0.20958 0.19703 1.88724 176 166 142
-0.163484 0.192625 1.75537 130 132 118
-0.0576454 0.191415 1.89847 102 90 65
-0.182094 0.199454 1.86234 120 119 106
