ply
format ascii 1.0
element vertex 1313
property float x
property float y
property float z
property uchar red
property uchar green
property uchar blue
end_header
0.794531 -1.02441 15.2656 168 148 110
0.105503 -0.971596 15.3164 177 162 122
-0.840305 -0.999683 17.1359 92 89 80
4.51982 -0.811193 18.6111 112 92 54
0.788408 -0.663551 15.5962 144 113 78
0.49027 -0.66295 15.8075 144 112 74
0.493524 -0.603007 15.7111 150 112 72
6.2666 -0.238397 18.3228 132 110 82
-2.8028 -0.0239012 18.2309 140 122 96
3.42713 0.237353 17.7736 82 61 24
4.75196 0.506685 18.3289 73 58 42
-2.2977 0.428095 18.1065 124 120 104
3.2811 0.950777 17.4367 100 72 13
-0.53607 1.41749 17.3529 155 154 140
2.30339 1.3106 14.675 141 126 80
6.49144 -2.09713 17.643 122 114 108
4.15048 -0.760263 16.948 118 96 52
5.03764 -0.781114 20.3891 108 93 58
1.73776 -0.554855 16.2839 146 116 74
5.66685 -0.294843 18.9973 117 90 61
3.61867 -0.0847996 17.092 108 89 32
-0.493461 0.864133 18.5956 96 98 80
2.16151 -3.91638 18.3662 194 191 179
2.711 -3.32344 19.3813 214 212 188
3.08375 -3.25332 18.6691 216 215 192
-0.940205 -2.47982 17.3156 220 211 170
-12.8046 -3.37608 30.4145 193 194 197
4.20753 -1.63749 16 58 68 64
4.28213 -1.23857 16.1563 64 66 53
1.27195 -0.923392 15.1004 178 156 115
1.27102 -0.764286 15.2805 152 114 76
1.31956 -0.746709 15.2582 165 134 96
1.3549 -0.717379 15.2854 166 136 98
1.96783 -0.67644 15.3072 159 146 102
2.45568 -0.284125 15.6526 144 134 91
5.1327 0.248968 18.8698 126 116 92
-2.27061 0.152247 18.9254 118 110 94
0.728918 0.545949 17.1478 118 112 76
3.87785 -3.3822 19.042 228 226 206
4.22273 -2.12539 15.7774 130 112 80
1.84725 -1.93238 14.593 15 28 49
2.52602 1.31898 16.8382 166 151 103
2.33242 -4.08499 19.3557 184 180 171
3.90336 -3.31304 18.7307 218 217 198
-13.9354 -4.88538 30.1949 187 188 192
2.78463 -3.21753 18.8257 202 200 179
5.02417 -2.96378 17.4566 125 112 110
4.56819 -2.64341 16.8199 178 150 136
5.44836 -2.47286 17.6105 182 180 164
5.2692 -2.37907 17.6074 152 142 127
2.95667 -2.08922 14.8547 170 164 140
5.4588 -2.27312 18.0292 162 156 154
4.49422 -2.06072 16.0979 120 94 66
-13.2451 -3.5202 30.8419 190 192 190
-13.4374 -3.40377 30.7357 190 196 200
-11.8353 -3.35806 30.6968 196 200 204
-11.2663 -3.23785 29.5643 194 198 202
5.09642 -1.22659 19.4112 102 94 66
5.17934 -1.08324 18.8907 132 112 70
5.22974 -0.849301 20.9104 114 104 71
4.43806 -0.701467 17.642 94 86 64
5.16045 -0.422744 17.695 147 132 106
0.23409 0.0466987 16.3571 132 120 68
-2.94496 -0.022929 18.7806 123 116 108
3.85407 0.620493 18.0111 98 84 50
3.15717 1.14561 15.6309 114 111 76
3.30598 1.20859 16.0277 144 130 80
2.02938 1.21206 16.4181 154 142 96
1.21858 1.41375 16.2839 136 130 96
3.6841 1.46913 16.0606 117 108 102
-0.901835 2.52079 14.7716 200 196 196
2.32321 1.31429 16.4695 157 138 88
2.75815 1.21931 17.3584 146 133 82
-15.199 -8.70716 32.2785 186 186 191
2.09858 -3.90403 18.3298 190 186 172
3.36785 -3.82697 18.5479 204 200 190
3.12732 -3.80693 19.1426 222 222 208
3.17347 -3.77312 19.0611 217 217 204
2.60982 -3.76108 19.105 229 229 212
4.9096 -3.33449 17.6655 166 162 160
-15.159 -5.57221 31.7978 184 186 190
4.92607 -3.37835 18.2929 195 190 182
5.04179 -2.73269 17.9442 142 133 134
5.67787 -2.50444 16.7557 171 168 158
6.22118 -2.40042 17.1521 167 162 160
4.66322 -2.33418 16.3767 124 108 70
5.26528 -2.20213 17.4554 150 142 132
-14.107 -3.52103 31.885 194 198 203
-10.7184 -3.12294 28.4541 195 198 202
4.51819 -1.66581 16.8042 124 107 76
3.74274 -1.46444 15.8243 34 20 14
4.79443 -1.4448 18.1434 166 158 152
5.4825 -1.37894 21.3455 49 43 45
5.63292 -1.36886 21.5506 101 92 74
3.89371 -0.796587 16.4885 116 92 39
4.82914 -0.786279 19.2492 47 51 47
5.13865 -0.924236 21.7853 83 74 48
4.60937 -0.613966 17.9261 68 73 70
4.3439 0.840298 17.9263 118 105 85
3.69587 0.855963 17.8482 114 98 40
3.52532 1.14993 16.7611 140 120 64
3.23492 1.1323 16.0706 126 115 70
-0.540648 1.23622 15.5008 146 146 136
1.27989 1.36981 15.9307 124 119 87
0.424687 1.35573 15.1164 92 91 84
-27.9539 -18.6373 62.6987 192 196 198
1.61608 -4.01135 18.9239 188 184 174
1.72568 -3.93822 18.4931 189 186 175
1.7532 -4.06173 19.2323 190 186 174
1.92287 -4.09976 19.4397 192 190 176
3.46236 -3.76914 18.2474 213 210 194
3.6685 -3.7195 18.8059 238 238 224
2.62733 -3.68964 19.2324 244 244 230
3.85122 -3.5944 19.1017 231 228 210
3.67464 -3.52358 19.3704 226 222 202
3.06225 -3.4733 19.2872 215 216 195
3.05635 -3.38504 20.1787 210 208 188
5.05689 -3.09078 17.7589 146 137 132
-13.581 -4.76708 29.7138 192 192 197
5.0006 -2.89893 17.3105 116 100 98
4.71713 -2.61689 16.4084 126 101 78
4.68926 -2.77672 17.5854 140 92 89
5.8133 -2.47242 16.2598 170 166 167
5.67776 -2.42721 16.0931 174 170 164
6.15644 -2.42055 17.1595 156 150 142
6.37664 -2.59297 19.2011 143 135 121
4.76178 -2.25917 16.9658 110 98 66
5.94914 -2.19811 16.6778 176 168 154
5.23649 -2.17238 17.6717 145 140 132
5.14001 -2.06296 17.1159 146 140 132
3.7217 -1.65873 15.7493 50 62 59
4.82478 -1.55922 17.998 164 155 154
4.55055 -1.41103 17.5291 134 120 88
4.38198 -1.31766 16.4422 127 110 67
4.57769 -1.23802 17.4101 116 94 48
5.5273 -1.33306 20.8449 56 50 42
3.58032 -0.954598 15.7761 38 43 42
4.09021 -0.751645 16.5916 124 102 56
4.51905 -0.848249 20.0644 107 90 56
4.65575 -0.70965 17.8156 52 58 54
4.62745 -0.838762 20.5532 60 59 50
4.78815 -0.547289 17.2181 120 108 86
4.31084 -0.525579 16.6592 108 89 52
4.56883 0.52304 17.8593 92 78 67
3.98674 0.630303 17.3387 86 72 50
3.65025 0.794762 17.4315 84 66 30
4.48236 0.83517 15.5584 134 128 104
-2.02171 0.914721 17.0717 180 158 148
3.88226 1.15799 17.6002 124 109 83
3.0929 1.18163 16.2398 118 114 79
2.52078 1.17839 14.5206 160 148 96
1.24223 1.46726 17.3246 92 89 71
0.00691463 1.29053 14.8145 156 120 109
2.09608 1.39474 15.505 130 66 44
1.03151 1.4033 15.5606 134 98 77
-0.742054 3.44181 11.9488 189 185 184
3.08283 -3.86259 19.0136 218 216 200
2.96432 -3.65742 18.5094 225 226 212
5.00961 -3.54364 19.2523 170 164 162
5.05785 -3.18655 17.8139 150 146 142
-15.3639 -4.45719 30.8371 186 189 193
5.43153 -2.52303 17.3656 176 172 168
5.28021 -2.12459 16.6115 156 150 147
-16.209 -3.7552 33.8686 196 200 204
-15.8369 -3.69929 33.313 193 198 200
5.58813 -1.88136 18.3379 172 170 175
5.71533 -1.86959 18.2163 172 170 174
3.16713 -1.65039 15.6042 118 112 87
4.65556 -1.68108 16.7644 135 122 94
3.38443 -1.52832 15.4286 102 96 72
3.52889 -1.43685 15.7415 49 67 60
3.45766 -1.37327 14.9518 34 46 45
4.37815 -1.27743 16.6934 112 98 56
4.57585 -1.28907 17.3303 132 109 67
4.48587 -1.23237 17.6169 116 102 68
4.70197 -1.22089 18.9467 130 110 66
4.0711 0.647569 17.8576 92 83 64
4.07013 0.708231 17.77 72 50 24
3.05657 0.797728 18.0067 82 64 26
4.66605 0.860973 16.7577 120 110 77
-1.69337 0.971824 16.3303 140 142 131
3.20311 1.20155 15.8435 146 121 82
-0.154176 1.23205 14.3606 211 208 186
0.393903 1.35766 15.0682 139 140 129
3.53116 -3.92392 18.9697 188 183 176
4.64043 -1.28947 17.6682 118 90 52
4.3212 1.00241 15.7449 146 130 92
-1.56895 0.933571 16.1915 133 130 119
-14.4485 -5.51291 29.7173 196 198 204
1.81766 -2.41745 18.4295 162 96 80
3.97975 -1.69773 15.5587 47 52 50
0.43304 -1.64819 15.1164 190 185 144
6.31668 -1.41532 18.3548 186 179 180
5.19539 -1.30868 18.1233 136 106 76
4.97059 -1.0075 19.1297 99 94 74
4.73339 -0.645073 20.1975 84 75 57
2.48826 -0.487775 15.7157 150 138 88
2.81061 -0.4275 15.6248 144 130 83
5.76593 -0.491126 19.8485 144 128 97
5.44241 -0.334779 19.777 138 124 93
2.96769 -0.288007 15.9568 86 86 59
2.66892 -0.149916 15.5928 84 80 50
-2.61068 -0.142583 17.7763 163 128 102
4.16841 -0.0522459 18.3776 124 109 74
-2.14352 0.0398894 18.8879 136 133 110
1.18111 0.0151118 15.8508 144 126 60
-2.20694 0.0891893 18.7409 138 134 117
-1.48843 0.110985 19.1007 122 122 111
1.11325 0.0809628 15.9086 138 110 59
3.13894 0.0913467 16.7881 64 48 18
5.33039 0.135901 19.2889 140 126 100
3.0823 0.113273 16.2906 40 20 0
1.69999 0.125702 16.0989 108 112 76
1.26506 0.134451 16.4927 143 133 76
3.26897 0.156816 16.9749 128 110 44
3.62096 0.203399 18.8123 116 100 72
-1.35543 0.256187 18.7456 122 118 92
-0.646427 0.268729 18.5137 169 170 144
-1.43113 0.318226 18.9056 184 179 149
-1.77902 0.407528 18.7559 160 160 145
3.28175 0.411495 18.5104 77 62 31
-0.923795 0.446702 18.9823 141 142 120
5.31687 0.52099 18.0974 120 104 86
0.0254772 0.464167 18.0295 102 98 84
4.58026 0.531297 18.2929 96 84 74
-1.43205 0.532458 18.5807 148 153 138
0.941263 0.517018 17.236 79 68 26
1.59439 0.938926 17.0954 115 114 90
3.77929 -1.35375 15.7644 109 84 43
3.24346 1.01704 17.3072 130 112 54
5.45872 1.80347 17.8719 110 95 81
-11.6696 -4.74556 30.0293 188 190 193
-13.4716 -4.24554 30.484 190 190 195
-12.9159 -4.04915 29.7253 187 188 193
-13.5139 -6.56134 29.2449 186 188 192
10.0521 -1.80996 18.9768 162 160 164
10.0372 -1.74252 17.9068 163 162 166
2.78273 0.333466 16.6895 134 108 27
-7.64919 1.43255 20.5578 200 200 201
-7.65397 -6.16733 27.132 193 194 196
3.75636 -3.75855 19.005 218 214 199
8.856 -1.741 17.9887 172 170 172
6.19548 -1.19192 18.3805 142 136 130
4.61063 -0.85034 17.945 92 88 68
-0.456961 -0.739564 16.2948 107 104 80
-14.9727 -6.6381 30.6955 189 192 198
-0.797051 -3.82854 19.4197 182 180 158
5.25038 -2.35867 17.1672 164 158 142
5.16683 -2.31298 17.1953 146 138 118
4.89525 -2.30376 17.9402 106 90 56
-7.46116 -2.99151 27.6547 188 190 192
16.9388 -2.03215 23.0622 154 153 156
16.1338 -1.75845 19.6792 152 152 156
4.43036 -1.33321 17.7914 125 108 65
1.22254 -1.16056 14.9234 172 143 106
4.92885 -1.32331 20.7771 128 118 80
5.3084 -1.30044 19.9151 134 121 94
5.44343 -1.29746 20.1091 74 68 58
-2.33713 -0.913352 19.3821 226 186 179
-1.40528 -0.884634 18.1798 132 130 95
-0.514738 -0.797191 16.2637 114 109 95
4.98704 -0.79153 19.7077 64 64 61
-2.49098 -0.815408 20.0734 170 140 108
-2.26731 -0.806268 20.3783 159 148 98
4.62239 -0.760884 21.1527 88 82 67
5.91949 -0.722139 19.9519 129 118 90
4.70346 -0.667991 19.8044 62 58 52
2.27817 -0.572943 15.2993 122 121 86
4.9597 -0.636477 18.4862 126 118 102
-1.42273 -0.528464 18.479 142 144 116
-1.99053 -0.310398 19.881 92 92 80
5.25496 -0.280053 19.8574 126 104 74
-0.848237 -0.25488 18.076 103 100 74
-2.18805 -0.180397 19.4197 104 101 90
-0.403654 -0.178772 17.0274 120 119 96
-0.436076 -0.184067 17.5627 86 81 63
-2.65051 -0.125083 18.6328 162 153 111
-2.06188 -0.11367 18.6565 100 104 96
-2.17325 -0.110797 19.3084 76 76 60
-1.04113 -0.114557 18.3532 96 93 80
-0.468784 -0.113817 17.2596 99 94 66
1.94826 -0.111804 15.748 131 126 90
-0.29935 -0.0804067 17.4628 135 128 92
-2.26177 -0.0139866 19.7062 117 116 94
3.6048 -0.0474733 18.975 112 94 35
-1.54675 0.0402886 19.2964 72 70 66
3.09192 0.139456 17.1346 125 110 55
0.339711 0.120652 16.6322 130 120 75
5.33906 0.20713 18.6513 141 124 97
6.09371 0.241171 17.6731 132 88 73
4.79581 0.251091 18.8834 132 112 81
1.83087 0.249238 16.7481 129 119 74
1.42955 0.281929 16.4 37 22 7
0.663962 0.312099 16.6077 116 102 52
2.85105 0.409066 17.3373 92 70 18
-1.4066 0.46112 18.1501 138 137 118
0.466485 0.518564 17.9254 146 144 101
-1.88031 0.509335 18.4114 140 143 128
5.92641 0.570681 18.4798 130 118 104
5.99596 0.544564 17.8808 116 102 94
1.1175 0.560073 17.2252 80 70 34
4.63223 0.844623 16.1427 136 128 104
0.235482 0.943044 17.2318 129 128 94
0.376833 0.919931 16.9885 168 168 136
4.45933 0.887646 16.5343 136 126 106
2.19129 1.34112 14.8393 162 148 103
5.25121 4.72948 16.1562 187 178 181
-6.1698 -5.35959 19.4078 191 192 194
-16.1082 -6.7427 32.1128 186 188 190
1.20868 -4.34411 21.157 193 190 178
1.31444 -4.32097 21.0137 194 192 178
0.868451 -4.35785 21.3692 192 189 176
0.0626562 -3.83053 18.8072 186 179 157
0.433216 -3.68986 17.9635 176 166 140
-0.743381 -4.18983 21.328 182 178 156
2.70096 -4.05087 20.5414 214 212 194
-0.700398 -3.98569 20.1882 184 180 158
-0.737332 -4.05629 20.6526 178 173 149
-0.166112 -3.89929 19.6202 175 164 134
-0.0833688 -3.88274 19.5113 202 188 158
2.39714 -3.91284 20.3345 221 219 200
2.29193 -4.03414 21.6214 245 246 230
1.1727 -2.59581 13.0041 148 142 110
0.267456 -3.26694 20.1429 158 154 126
-1.42476 -2.59121 16.4395 130 130 127
5.81851 -2.49679 17.0056 176 170 164
-1.57394 -2.47928 17.2282 219 184 156
5.4527 -2.36457 16.569 195 190 176
-1.62899 -2.46286 17.0575 201 202 194
-2.86571 -2.70577 21.0285 210 210 192
5.35555 -2.13722 16.2909 159 150 141
4.78256 -2.08947 15.9879 105 96 70
-9.96444 -3.29967 30.7437 186 190 192
-9.88424 -3.32159 30.9776 188 191 196
-9.59382 -3.28245 30.5478 188 192 195
-1.09376 -1.98761 15.773 222 210 182
-6.67938 -2.9717 27.7786 188 189 194
-7.05607 -3.12367 29.5942 190 193 196
-7.39098 -3.23487 30.8295 191 195 198
-7.20745 -3.20946 30.544 198 200 204
-3.63694 -2.29223 20.7939 200 202 206
-6.58992 -3.10173 29.626 204 206 210
6.31408 -1.98095 17.2739 126 112 98
5.42352 -2.36437 24.2134 172 170 175
3.39055 -1.751 15.4695 120 110 68
5.57634 -2.39288 24.831 178 176 182
5.69038 -2.4402 25.411 174 172 178
5.77709 -2.39769 24.8812 173 172 176
6.3021 -2.36974 24.5114 159 150 139
6.97444 -2.44227 25.804 173 171 176
10.0799 -1.99132 21.241 168 167 170
18.7808 -2.30521 26.4039 155 154 157
18.8482 -2.30537 26.4022 152 151 154
18.7856 -2.24095 26.4747 150 149 152
19.3135 -2.32544 27.6336 148 147 150
19.2561 -2.31306 27.2969 145 145 148
19.3253 -2.31324 27.2951 148 147 150
18.8401 -2.17085 25.6435 151 150 152
-0.798835 -1.62201 16.3923 208 192 148
-0.715056 -1.4509 15.643 178 180 152
-1.22751 -1.44502 16.6311 186 189 186
5.11571 -1.48308 20.5791 160 138 118
0.0934483 -1.16998 15.1444 176 184 155
4.56741 -0.934549 16.1471 112 88 38
0.0536249 -0.79359 13.8339 90 88 80
1.89507 -0.83451 15.5032 154 144 101
-2.66931 -1.00009 20.9101 179 143 124
-2.21895 -0.955898 20.0726 144 134 104
-0.145881 -0.798512 15.9115 194 183 133
-2.83282 -0.959562 21.3976 138 80 61
-0.0226705 -0.730984 15.3648 188 181 136
1.81633 -0.708357 15.9686 155 134 92
-2.85334 -0.811898 20.1863 210 211 214
5.98776 -0.74309 20.3112 128 116 84
-2.985 -0.768191 20.6162 74 73 82
-2.10729 -0.708988 19.902 170 155 104
5.8159 -0.61385 17.6614 136 120 88
6.11187 -0.649869 19.5902 136 121 92
-2.67737 -0.566317 18.8078 194 153 138
-1.84892 -0.551905 19.719 148 144 103
0.809606 -0.429606 15.7636 160 130 77
-2.88859 -0.510508 20.7955 167 157 112
2.92344 -0.416761 15.5288 123 118 82
5.64634 -0.450979 19.2383 128 104 76
-1.1225 -0.44248 18.298 117 116 74
-2.54245 -0.43053 17.8329 221 220 218
-1.79121 -0.292028 18.3719 148 126 94
-1.03769 -0.289919 18.783 98 94 72
-3.08327 -0.287877 18.8732 229 207 202
2.6038 -0.237718 15.8766 70 66 42
-1.99969 -0.141214 19.1582 70 68 62
-2.24358 -0.137081 20.3218 160 157 126
6.37721 -0.0442372 17.7994 154 132 116
-1.76631 -0.0494149 19.1688 158 156 129
-0.654919 -0.0260107 17.8928 79 78 64
0.594017 -0.0467405 15.2996 146 140 93
-1.35497 0.0608344 19.0202 144 142 123
-1.45693 0.109296 18.7942 102 104 94
1.00412 0.0671721 14.5607 122 122 84
3.33796 0.222698 18.6271 101 79 26
3.2812 0.248743 17.5811 75 58 16
-1.9075 0.297023 18.7187 80 80 60
6.12375 0.298056 16.2993 134 110 94
6.03113 0.377366 16.5937 135 122 97
5.96373 0.437111 16.6714 123 112 100
0.411446 0.439547 17.0124 128 128 88
6.04921 0.484886 17.9321 122 110 98
5.90753 0.460263 16.4633 112 104 92
-0.765233 0.491065 17.0679 130 126 112
-2.23158 0.493749 16.2974 148 108 103
4.62896 0.604699 18.1232 106 93 76
5.7063 0.564199 16.6473 106 64 49
4.35824 0.573107 16.5512 99 90 73
4.7483 0.6016 17.4503 134 121 98
2.22443 0.599096 16.6235 127 113 55
-2.39919 0.602136 16.7417 215 212 198
5.05373 0.640215 16.5119 116 106 86
-2.18559 0.635483 16.289 212 214 193
3.68649 0.729212 17.7608 41 20 8
4.05225 0.742599 18.1142 78 54 14
4.79324 0.754989 16.2741 130 114 91
4.14103 0.884054 18.0234 123 106 78
0.303276 0.869223 17.0357 120 123 96
4.30351 0.891123 16.8511 133 120 100
-1.43596 0.852698 15.868 142 140 116
4.15914 0.886356 16.0768 94 82 46
4.12335 0.933397 17.0809 62 50 18
-0.0398029 1.055 19.6345 150 144 110
-0.0930285 1.02836 17.6118 123 112 79
2.39869 1.01712 16.601 140 127 77
-1.5427 1.00488 15.7419 210 212 199
3.21297 1.13272 16.3008 120 118 84
3.29971 1.12576 16.1415 126 119 74
-0.414803 1.2026 14.8951 198 200 186
-0.104656 1.25298 14.6961 219 202 191
0.459592 1.29972 14.4886 89 86 81
-0.24127 1.40085 15.7433 196 194 180
-6.8288 -9.60773 28.3012 182 183 180
-17.6471 -6.83305 30.1172 142 138 114
-17.796 -6.49094 30.3933 113 108 86
-16.0672 -5.29837 30.5328 176 176 180
-17.9501 -4.70122 31.001 123 116 102
-17.6318 -4.09673 31.175 112 95 60
-18.3708 -4.06607 31.2556 122 114 96
-17.9807 -4.00902 31.2341 123 117 93
-18.3909 -3.98996 31.3264 124 114 96
-17.6522 -3.72811 31.3313 108 86 60
-17.5077 -3.556 31.0344 86 78 74
-17.0321 -3.57116 32.0468 184 184 189
3.04195 0.93778 17.3021 118 99 46
-16.638 -4.38957 31.1256 165 164 169
-18.6581 -4.24481 31.3492 104 76 54
-17.6783 -3.80744 31.32 104 84 52
-15.9548 -5.91383 30.2329 177 177 182
-17.9986 -4.77517 31.085 123 114 99
-18.462 -5.07187 31.0522 105 100 86
-18.4385 -4.98005 31.0191 128 122 108
-18.4922 -4.90479 31.1124 120 113 100
-11.7435 -8.75375 28.7221 188 190 192
-15.6038 -6.34376 29.4729 186 188 192
4.59089 0.93647 18.4291 124 110 78
-0.553236 3.89519 15.8014 192 188 185
2.91216 -3.80326 19.1125 206 208 190
4.09676 -1.02835 16.769 50 53 42
3.59189 -0.496529 16.1344 132 118 69
-17.5804 -6.9464 32.571 184 186 190
-17.3386 -6.43089 30.1582 46 34 42
-17.4141 -6.09242 30.1048 88 70 50
-14.4603 -5.64705 29.8899 190 192 196
-17.0469 -5.55631 30.2399 72 67 78
1.04225 -4.03917 19.5722 192 188 172
4.83825 -3.49395 18.0784 178 175 172
-17.3291 -4.97149 31.003 44 34 46
-17.3077 -4.45952 30.0436 123 114 100
-1.49043 -3.041 17.2162 190 186 168
-17.3375 -4.41317 31.4125 110 97 104
-17.5362 -4.0704 29.8966 104 95 76
-16.905 -3.56256 30.8148 26 18 25
-18.4976 -3.50925 31.311 78 65 54
5.40711 -2.5673 17.6971 180 175 172
-16.1858 -3.57854 31.974 194 198 202
-14.2941 -3.29726 29.234 198 200 204
-0.841277 -2.16014 16.0958 76 82 97
4.71964 -2.05977 16.6424 121 110 77
2.65579 -1.70138 14.2746 144 129 91
7.04786 -1.8261 17.9112 170 168 172
13.6333 -2.50146 28.8843 168 166 171
13.0138 -2.20119 24.7398 164 163 169
12.45 -1.48531 15.0955 160 158 164
3.4553 -1.42246 15.4778 46 58 57
0.937507 -1.06203 15.112 160 136 92
3.01944 -0.927805 15.1391 133 104 56
-1.85029 -0.778816 18.9622 156 149 110
-0.286103 -0.712453 16.1991 170 150 112
4.4892 -0.758719 19.1002 54 51 48
5.05248 -0.793143 19.9578 90 83 73
6.08377 -0.824763 19.7561 141 126 92
-2.91372 -0.359285 19.119 76 73 70
1.09451 -0.219477 15.4282 132 131 98
-1.20152 -0.160875 18.1616 144 144 133
-1.48072 0.485965 19.0486 102 102 90
5.67316 0.510145 17.7813 154 134 104
3.41898 1.08641 17.1214 120 101 56
-14.1476 -5.50686 28.8646 170 170 174
-18.0334 -5.70854 30.6409 116 104 92
-17.3202 -5.30319 30.801 59 45 57
-1.82248 -3.09827 17.8261 178 174 160
-1.82316 -3.08951 17.8939 158 153 142
-17.5806 -4.76714 30.7857 94 70 48
-17.6165 -4.71942 30.902 98 78 53
-1.78543 -2.87732 17.712 182 146 132
-17.5825 -4.55797 30.8347 90 74 48
-17.9071 -4.48577 30.9238 122 113 102
-18.2002 -4.1657 30.8129 114 101 90
-17.6386 -4.17227 31.1222 94 76 42
-18.031 -3.5312 31.0353 38 29 28
-18.3699 -3.48462 31.1398 60 41 38
-18.1881 -3.46221 31.1938 22 12 15
-11.359 -3.28787 30.0245 178 180 184
-4.68677 -2.43866 22.5938 180 180 183
1.28764 -1.60033 14.8367 154 140 98
-0.862839 -1.63726 16.077 182 182 146
-0.22536 -1.52099 15.2903 176 148 94
-1.5041 -1.66464 17.4928 155 150 138
-0.976688 -1.47883 16.4417 183 181 148
-0.548486 -1.44948 15.9424 189 178 137
-0.229188 -1.31239 15.5353 183 170 129
0.100449 -1.07157 15.4054 163 134 96
-2.72877 -1.44686 22.341 190 190 194
2.51187 -0.80986 15.3649 128 116 79
1.19002 -0.753164 15.2209 136 92 62
6.07574 -0.61211 19.0768 116 99 72
0.93148 -0.426149 15.7117 135 99 58
1.15654 -0.374365 15.6117 108 54 18
-0.635244 -0.321251 17.2852 74 70 46
3.17352 -0.129719 16.2839 119 98 46
-2.29057 -0.160249 19.5984 97 95 86
-2.24365 0.0115319 19.4445 94 90 74
3.56299 0.459876 19.035 69 52 23
-1.56159 0.421323 18.9942 116 110 86
1.45703 0.399617 16.3726 100 77 20
-0.58932 0.754452 18.3277 90 87 71
3.56328 1.01665 17.3462 113 96 60
-17.6106 -6.74501 29.8704 98 90 70
-14.5373 -5.63352 29.9308 170 170 175
-17.689 -5.67378 30.7311 92 72 44
-14.5099 -5.32696 30.4792 169 169 174
-17.6667 -5.0825 30.908 90 66 42
1.12508 0.0549399 15.9113 126 103 42
-0.0341209 0.208075 16.8634 48 40 30
-17.2986 -5.78521 30.4624 60 48 62
-17.903 -4.40908 30.9357 118 108 99
-18.3789 -3.70531 31.3722 93 84 79
-17.5521 -3.39547 30.5638 34 28 38
-17.9806 -3.96698 31.2723 104 96 75
-18.1349 -3.53578 31.1437 46 36 36
3.28289 -3.75363 18.7892 190 191 178
-0.537943 -3.85925 19.1842 162 157 140
3.07717 -3.68118 18.8515 202 204 190
-1.58393 -3.4057 18.4027 166 160 144
4.99171 -2.9885 17.2882 138 132 130
-1.77694 -3.1322 17.7619 174 172 164
4.87747 -2.29241 17.141 92 77 46
5.24257 -2.30517 17.5527 134 124 106
-16.8821 -3.4897 30.503 27 10 26
-17.3773 -3.53501 31.1903 24 16 25
-17.4425 -3.51575 31.1614 24 14 22
-17.605 -3.4935 31.1751 18 12 22
-17.4412 -3.4864 31.0444 26 18 27
-17.0576 -3.66923 33.0802 179 181 186
0.123193 -1.7755 15.0298 179 166 125
-18.2001 -3.40558 30.8776 38 26 24
-1.6001 -1.95834 17.407 198 190 161
-1.25937 -1.67427 17.0275 189 183 148
-1.60147 -1.68542 17.8091 168 164 159
-1.57507 -1.54334 17.6629 174 174 172
-1.34507 -1.58421 17.441 150 146 134
-0.790554 -1.16636 16.4132 112 110 98
-1.35754 -1.00937 18.2094 128 114 75
-0.748701 -0.897474 16.9221 60 53 49
-0.41721 -0.719395 16.2173 74 67 50
-2.17659 -0.841296 21.1844 159 144 98
-1.95734 -0.660868 20.8458 76 74 61
-0.787856 -0.458452 16.9845 42 36 26
-1.90503 -0.563444 20.1273 114 112 103
-2.3114 -0.445507 19.9693 156 144 102
-1.55506 -0.382472 20.3191 52 48 45
2.3683 -0.142031 15.8332 114 104 66
-2.00784 -0.0880552 19.8748 133 130 107
6.0303 0.229908 17.4222 142 114 94
-0.635474 0.191529 18.4418 145 141 116
2.01961 0.294312 16.2958 80 63 18
2.21861 0.300504 16.2671 91 72 32
1.95543 0.310758 16.3868 82 66 24
-1.88561 0.877948 16.886 166 142 134
2.18464 0.968062 17.0312 116 102 58
1.10788 -4.27138 20.5855 175 171 160
-17.3308 -5.41366 30.0007 94 74 44
-18.1964 -4.55031 30.8252 90 80 70
5.61063 -2.66158 17.8272 154 150 150
5.70665 -2.56958 17.2685 162 158 150
5.49203 -2.47837 17.1572 174 172 157
-1.55587 -2.50304 17.2754 110 106 111
6.08761 -2.283 16.5649 126 118 109
-1.32562 -2.2747 16.4327 201 194 152
5.24201 -2.19527 17.5313 134 127 113
-15.9122 -3.68938 33.1394 182 184 189
-5.96311 -2.92287 27.2411 183 184 187
-6.85016 -3.00983 28.2668 176 177 181
6.34788 -1.76742 16.8373 124 115 110
-1.31895 -1.68901 16.8102 187 162 132
0.698609 -1.35748 14.5603 174 144 105
-0.89469 -1.43461 16.1499 172 172 146
-1.16718 -1.46735 16.9371 152 152 136
-0.740196 -1.4152 16.5834 183 168 130
-0.784248 -1.28892 16.5815 85 78 69
-2.41625 -0.856185 19.5255 149 137 106
1.07561 0.158129 16.9236 125 106 56
-2.32678 0.334116 18.6267 142 135 112
-0.483384 0.6679 18.547 124 121 96
-1.30723 0.701049 18.0255 130 129 113
0.848114 1.36624 14.6937 176 158 132
-8.79039 1.64515 17.1647 186 186 186
5.01203 -3.09165 17.4861 145 137 135
-17.843 -3.65511 32.2663 26 22 32
-11.6748 -3.43528 31.6384 180 184 188
-4.27263 -2.76228 26.2044 193 196 198
0.747823 -1.41698 14.963 178 142 102
4.9277 -0.773234 19.0005 108 96 62
0.220357 0.167594 16.0651 105 89 42
1.66408 0.251413 16.7223 68 50 26
5.61688 0.674025 17.08 85 74 59
5.4734 0.738765 16.7808 44 36 39
-3.0362 -0.304753 18.7133 207 200 192
3.91028 0.563653 18.6721 96 81 54
-18.1539 -11.3635 29.7803 62 46 46
-18.8321 -11.0578 30.0659 116 114 104
-17.9967 -9.91667 28.309 123 120 110
-18.5845 -9.73705 29.9477 114 112 95
-18.5918 -9.68528 30.0196 120 116 102
-17.3929 -9.21784 28.7846 108 103 106
-18.1464 -9.48686 29.8605 95 92 81
-18.2474 -9.27472 30.3812 70 63 55
-17.457 -8.80449 28.8317 98 92 86
-18.5912 -9.17487 30.1455 126 126 107
-18.532 -9.10537 30.1328 87 82 64
-18.664 -9.03361 30.2517 136 137 120
-17.9608 -8.8482 29.3378 114 108 94
-18.4192 -8.78678 29.7067 144 144 130
-17.4141 -8.67721 29.2666 161 160 165
-17.6363 -8.6536 29.5557 104 98 86
-18.5617 -8.62397 29.5785 137 133 116
-19.8584 -9.00245 31.3078 128 123 106
-17.9997 -8.30919 28.5127 118 110 95
-20.0101 -8.67538 31.2314 113 88 64
-19.3397 -8.34526 29.8814 114 88 65
-19.3088 -8.35141 29.9741 112 83 60
-19.0781 -8.00808 28.5608 118 96 70
-19.6912 -8.16254 29.9563 116 92 64
-19.06 -8.02266 30.0796 108 84 54
-18.5051 -8.01586 29.8983 112 100 85
-19.6687 -8.03166 30.1619 103 82 55
-18.5357 -8.03954 30.1345 106 98 84
-20.3252 -8.73142 32.7349 118 92 64
-18.8395 -7.87914 29.5865 118 92 62
-18.8603 -7.89501 29.7882 113 86 59
-18.941 -7.59201 28.6623 103 78 52
-18.1517 -7.71803 28.9384 118 96 77
-19.2659 -7.77643 29.8378 117 90 62
-17.9519 -7.78742 29.8915 110 102 55
-17.7879 -7.76528 30.079 80 66 39
-20.6716 -8.22959 32.8891 105 74 54
-19.4348 -7.44846 29.7383 110 82 58
-20.2053 -7.82992 31.7113 119 97 69
-18.401 -7.30983 30.3023 104 96 70
-19.589 -7.45384 30.8117 120 100 69
-18.8539 -7.11714 29.9008 102 71 49
-18.1107 -6.7399 29.8085 117 106 81
-17.611 -6.76079 30.0259 110 98 76
-18.4482 -6.7963 29.9588 120 95 78
-19.7266 -6.68596 29.8997 94 71 52
-20.4899 -7.05693 31.8347 101 75 58
-17.8268 -6.58399 30.493 102 88 68
-17.7732 -6.40197 30.337 112 104 84
1.24493 -4.02252 18.8169 154 152 144
-17.8 -6.22528 30.1341 115 106 92
0.917597 -3.92444 18.3631 164 161 150
-19.3635 -6.31812 30.5318 103 76 46
-19.0652 -6.34388 30.7194 110 84 60
-17.6278 -6.21864 30.3487 74 56 40
0.592665 -3.81883 17.9532 164 160 144
-20.7169 -6.49023 32.1218 98 75 31
-17.686 -6.17129 30.512 80 61 44
0.691172 -3.96477 18.9868 176 172 152
0.402881 -3.89886 18.724 167 160 142
-0.243236 -3.93764 19.087 159 154 141
3.9244 -3.81839 18.9492 164 164 158
-0.566934 -3.64621 17.4454 157 152 138
3.34776 -3.66574 18.29 204 204 192
-0.682362 -3.79778 18.6144 165 158 150
2.98319 -3.58348 17.6821 198 201 186
3.25744 -3.70201 18.6407 188 191 176
3.32306 -3.67374 18.6731 204 205 192
-0.862295 -3.72813 18.501 156 150 139
3.35449 -3.64711 18.3929 214 216 204
3.45809 -3.62902 18.3609 197 198 187
3.53364 -3.62701 18.418 207 208 196
4.468 -3.60623 18.3863 149 147 142
-18.315 -5.92443 30.2343 104 82 76
-18.4464 -6.00637 30.7212 132 120 112
-0.91423 -3.73778 18.5117 160 153 142
2.55795 -3.75728 19.1584 185 186 168
2.51354 -3.68865 18.6807 190 191 175
2.88884 -3.69746 18.8263 186 188 174
2.82203 -3.5999 18.1617 192 194 180
3.75849 -3.66478 18.8045 188 189 174
-1.07792 -3.64846 18.2578 154 148 136
2.68946 -3.70555 19.0774 180 180 165
3.65929 -3.65946 18.7054 194 195 184
-19.7575 -6.07157 31.5072 102 76 46
-19.104 -5.80312 30.3495 102 72 50
-18.451 -5.91942 30.7703 114 104 96
2.56126 -3.70459 19.1841 186 186 170
2.92205 -3.6593 18.94 214 216 202
2.68159 -3.63984 19.0756 218 219 206
-20.0449 -5.95256 31.3278 90 61 36
3.69756 -3.49632 18.4399 206 208 192
3.37289 -3.72122 19.7467 202 204 190
3.81333 -3.53155 18.6821 190 192 174
-1.37281 -3.58791 18.3281 164 156 144
2.55545 -3.59027 19.094 192 194 178
2.65599 -3.57416 19.0154 216 218 205
3.51936 -3.43024 18.2968 206 210 195
-18.3126 -5.68383 30.4644 124 116 108
-1.44285 -3.58315 18.4927 158 151 138
3.742 -3.48423 18.5941 192 194 177
-18.8685 -5.83804 30.7092 101 72 54
3.14544 -3.53674 19.0242 201 204 190
2.65716 -3.53568 19.1957 210 212 197
-18.4646 -5.71053 30.8264 124 116 108
2.54019 -3.49941 19.1134 188 189 172
4.69165 -3.22129 17.2693 152 151 147
-1.61625 -3.45412 18.192 164 158 148
2.93453 -3.46504 18.9058 201 203 186
-18.418 -5.57841 30.7794 110 100 92
-1.67793 -3.43192 18.2662 168 162 156
2.94679 -3.39208 18.9662 190 192 174
2.99233 -3.40362 18.9212 191 193 176
-1.77206 -3.35769 18.3047 166 162 160
3.24109 -3.41913 19.3069 196 198 181
-1.71829 -3.38248 18.3248 170 164 156
-1.66595 -3.4204 18.4855 150 142 128
-17.6539 -5.40533 30.7366 92 64 42
-1.76615 -3.33597 18.3624 174 166 158
3.18842 -3.34151 19.1618 194 196 178
3.55183 -3.33329 19.082 197 196 178
4.89126 -2.88722 16.814 140 136 136
-1.8013 -3.23982 18.1928 172 164 152
3.03294 -3.2132 18.5873 186 188 168
3.10502 -3.23177 18.6651 188 188 170
-18.3017 -5.36326 30.5725 116 106 97
3.49007 -3.01726 17.6454 188 190 172
-18.1894 -5.04829 29.0536 99 67 44
2.73253 -3.21189 19.1345 182 182 162
4.96822 -2.9002 17.3144 160 156 149
-1.82196 -3.11336 18.2067 106 101 104
-23.415 -6.32376 38.6401 85 52 32
-19.8248 -5.10273 31.386 90 58 38
-18.4001 -4.96644 30.9744 105 96 86
-19.2461 -4.86645 30.1481 88 56 35
-1.70364 -2.97686 18.1182 158 120 102
-18.5311 -4.90646 31.2873 102 92 82
-19.7512 -4.81423 30.428 88 56 34
-1.80377 -2.88364 18.1513 159 144 140
4.76879 -2.62754 17.2079 117 106 86
-17.9428 -4.78819 31.0353 112 98 86
5.79461 -2.61402 17.3329 147 144 140
-19.0909 -4.81596 31.1292 96 66 43
-1.78624 -2.91702 18.3885 170 158 152
-1.39004 -2.75844 17.5231 182 178 168
5.67288 -2.60215 17.3493 145 142 138
5.89803 -2.59873 17.3132 146 142 138
-18.9495 -4.79439 31.0178 102 72 45
-1.78801 -2.79196 18.2838 186 176 164
-18.2062 -4.72253 31.6596 111 99 88
-1.76723 -2.72123 18.1456 186 176 160
-1.62571 -2.70581 18.1589 136 106 92
4.89911 -2.5712 17.6314 87 68 48
-19.2282 -4.5249 30.8087 103 74 46
-17.1666 -4.55066 30.8946 84 68 80
5.1997 -2.45427 17.0699 128 120 115
4.46174 -2.32694 16.1736 97 75 51
-18.1124 -4.47766 30.6258 88 78 67
-19.7145 -4.53908 31.1206 86 56 38
5.19618 -2.3261 16.6783 149 144 130
-19.6246 -4.53875 31.0892 81 51 34
-1.732 -2.70063 18.6837 186 178 156
-1.51624 -2.77585 18.7564 180 160 130
-18.8348 -4.44532 31.2767 96 64 41
-18.6503 -4.41577 30.9845 92 62 40
-1.57138 -2.43909 16.8201 184 173 154
-1.43667 -2.42942 16.8188 60 62 79
-1.75177 -2.57331 18.3978 184 174 154
-18.1771 -4.3225 30.7111 104 95 87
-17.1196 -4.42779 30.9837 137 130 137
-1.42445 -2.32722 16.4133 138 128 109
-1.7198 -2.59075 18.8855 181 169 149
-17.9931 -4.18124 30.2405 96 82 78
-19.5205 -4.41467 31.6159 82 56 34
-19.2896 -4.30871 31.3934 80 56 36
0.261743 -2.15654 15.9596 126 65 46
-19.0282 -4.21569 30.9653 83 58 36
-1.59724 -2.44395 18.5268 190 184 157
-1.58833 -2.29737 16.9618 178 174 146
-1.74433 -2.36915 17.9452 188 183 166
-19.5292 -4.14467 30.9724 91 58 38
-18.009 -4.06294 31.3306 106 94 77
-1.71013 -2.39475 18.6894 186 185 171
-1.33454 -2.12704 16.2802 190 167 108
-1.17278 -2.07931 16.1353 189 174 133
-1.59899 -2.35748 18.5521 177 178 152
-1.24439 -2.10093 16.5129 186 154 100
-0.835072 -2.04815 15.8746 186 166 129
-19.1058 -4.08749 31.3267 80 54 38
-18.9713 -4.02594 31.2103 79 53 36
-1.26168 -2.04046 16.6161 182 153 104
-1.18522 -2.00096 16.103 176 154 112
0.145901 -1.87106 15.3106 154 128 91
-18.7634 -3.90488 31.2598 86 58 42
0.012062 -1.85088 15.0517 156 118 88
5.0559 -1.95602 17.1323 126 122 119
0.115328 -1.80713 14.9526 168 151 113
3.73714 -1.8165 15.5986 79 68 51
-18.7923 -3.86209 31.4293 90 60 46
-1.29524 -1.95787 16.4458 180 164 114
-1.23508 -1.98239 16.5807 193 177 134
-1.42574 -1.9946 16.6278 187 174 134
-1.59144 -2.12038 17.878 177 166 134
-20.4131 -3.77301 31.2887 70 44 26
-18.6605 -3.73366 31.2982 84 54 41
3.09338 -1.69224 15.135 96 87 66
-1.573 -1.9962 17.6242 188 177 144
-20.4371 -3.72479 31.3609 78 57 38
-17.3385 -3.60985 31.3288 22 4 15
-13.0359 -3.48277 30.4168 164 164 161
10.7864 -1.70575 17.3075 136 134 140
10.3999 -1.60036 16.2925 136 134 140
-17.5646 -3.61145 31.4562 33 24 30
-1.39237 -1.89712 16.6996 194 182 142
-0.576116 -1.76357 15.6063 170 146 78
0.460336 -1.68301 15.1241 158 152 122
2.87271 -1.70118 15.5607 111 80 28
3.05225 -1.66331 15.1595 111 100 70
3.94239 -1.7189 15.8088 32 30 36
9.24259 -1.81977 18.1331 136 134 139
-1.8199 -2.14873 20.0771 159 156 161
0.481094 -1.6605 14.9255 134 132 112
6.48391 -1.73937 17.0055 138 138 140
-17.54 -3.56319 31.6276 17 8 21
-17.0126 -3.47633 30.8032 42 28 40
-17.2824 -3.60158 31.7217 31 22 34
5.74279 -1.82854 17.8685 145 144 149
5.77072 -1.80737 17.6916 146 146 150
5.79991 -1.79635 17.5647 145 144 148
5.91797 -1.78726 17.5295 146 146 150
-18.0007 -3.48557 30.6038 56 49 44
-17.4849 -3.49476 31.1747 11 8 16
-14.7372 -3.52535 31.7584 168 170 174
-14.4377 -3.43794 30.9719 172 174 178
-13.2794 -3.43994 31.0867 172 174 175
-9.56804 -3.31983 30.6698 154 155 158
-8.19011 -3.2077 29.7533 153 154 158
-7.69782 -3.09337 28.6981 158 158 160
-6.73286 -2.79154 25.7405 160 160 164
-7.0675 -3.08407 28.6799 161 162 166
-6.92217 -3.28258 30.7706 167 168 172
-6.29938 -3.21988 30.3721 176 178 182
-5.91086 -3.10486 29.0756 175 174 179
-3.44041 -2.29782 21.3956 172 171 174
-0.582503 -1.70092 15.508 172 152 98
-17.9835 -3.45942 30.7437 24 18 22
-17.652 -3.50982 31.4306 16 13 22
-11.58 -3.28338 30.0937 179 182 186
-2.81314 -2.37082 22.3245 172 172 177
-1.77264 -2.01053 18.8516 172 171 175
0.484853 -1.60875 14.9398 152 146 117
4.17231 -1.65866 16.0514 42 40 40
4.48352 -1.69901 16.683 98 91 81
-21.3263 -3.75773 33.2508 68 56 46
-17.1844 -3.43648 30.996 104 102 108
3.16909 -1.56168 15.018 84 85 66
6.50195 -1.68386 17.147 155 154 156
0.587103 -1.59194 14.9463 164 141 101
-18.542 -3.48506 31.7753 23 16 15
3.16505 -1.52849 15.1402 110 98 66
-0.620678 -1.65689 15.8568 186 173 130
3.2284 -1.53897 15.2403 96 92 64
4.65579 -1.67813 16.9597 130 122 112
-19.1983 -3.44346 31.5285 84 72 60
-19.0017 -3.43148 31.249 60 46 35
0.691987 -1.55804 15.25 150 120 80
4.70084 -1.63957 16.9392 134 128 124
-0.611469 -1.61883 15.9793 186 170 128
4.63503 -1.61944 17.1105 120 111 100
4.76014 -1.65719 17.3102 140 134 128
0.818327 -1.47532 15.0287 155 137 98
6.43276 -1.54143 17.1406 132 128 126
-1.61286 -1.93569 18.9095 137 134 132
-0.675941 -1.56012 15.8917 169 141 104
1.29546 -1.45252 14.9985 146 127 88
0.886649 -1.43453 14.9414 124 100 82
0.938279 -1.41617 14.8656 101 88 80
1.05057 -1.46444 15.2043 106 96 82
1.06022 -1.41952 14.826 126 96 67
-1.54932 -1.77228 17.968 124 115 109
0.706228 -1.43576 14.9105 159 139 104
1.23092 -1.40687 14.91 144 106 73
-17.8381 -3.15325 30.6789 128 124 124
-1.61951 -1.7304 18.5619 154 148 148
-1.22786 -1.57557 16.399 180 176 153
-0.808298 -1.52255 15.9524 174 170 136
-0.644337 -1.50336 15.7675 170 134 102
0.660989 -1.42217 15.2515 150 136 108
0.737158 -1.40799 14.8889 163 126 93
3.42019 -1.44125 15.4986 22 16 10
-1.36119 -1.5819 16.7854 169 158 136
-0.611358 -1.46418 15.6061 168 146 110
-0.137403 -1.45528 15.8163 167 140 73
-1.57509 -1.68409 18.0395 128 122 121
-1.27957 -1.55624 16.7427 172 142 116
-0.259167 -1.40486 15.4968 174 150 108
0.705913 -1.40338 15.1252 162 130 96
0.774815 -1.37679 14.9556 120 75 44
-1.60906 -1.73875 18.6321 158 155 153
-1.16242 -1.55637 16.8625 144 156 146
-0.809048 -1.4724 16.0136 168 164 133
-1.35373 -1.56115 17.0448 144 146 136
0.694279 -1.34556 15.3402 152 124 94
6.45768 -1.42834 17.365 136 132 130
-19.7044 -2.96011 29.9734 98 83 66
-19.8516 -3.02441 30.4633 92 75 56
-19.3755 -2.79495 28.7756 103 88 68
-1.38644 -1.51033 16.9622 79 79 79
-1.32198 -1.50129 17.0375 103 100 94
0.564591 -1.31694 15.0445 164 139 106
-17.5248 -2.77946 29.0964 133 126 128
-1.59152 -1.63139 18.7955 156 154 154
4.76084 -1.37893 17.6525 139 135 130
-1.40357 -1.44996 16.9947 89 84 82
-1.25767 -1.44777 17.0008 68 70 68
-1.21643 -1.44886 16.766 100 101 102
0.598276 -1.25011 15.0414 140 96 53
-1.59069 -1.58912 18.5798 164 160 163
-1.07407 -1.39894 16.6421 160 155 138
-0.870432 -1.36787 16.1065 140 124 104
-0.825595 -1.36799 16.0515 124 105 80
-16.0527 -2.72328 30.4333 180 180 185
-0.707785 -1.33008 15.852 162 145 112
-1.1909 -1.40026 17.007 66 64 66
-1.11543 -1.36132 16.4504 48 44 41
-1.00789 -1.33817 16.4225 92 89 79
0.541466 -1.22318 15.2626 145 113 79
-0.825658 -1.32011 16.0705 132 111 92
-0.754109 -1.27914 16.2591 87 69 58
3.74961 -1.20036 16.1895 24 16 16
-1.50346 -1.49086 18.9225 136 131 130
-0.955067 -1.3262 16.7006 52 48 50
-0.883857 -1.30549 16.4982 50 48 46
2.73458 -1.14984 15.2843 50 54 47
4.06355 -1.1924 16.1205 37 30 24
2.69795 -1.13099 15.3354 98 92 76
0.421463 -1.16902 15.2079 140 131 116
3.70168 -1.12271 15.9486 48 40 36
-1.07868 -1.25024 16.8864 106 103 90
4.39909 -1.15688 16.9957 76 67 52
-0.903575 -1.22726 16.4594 96 94 91
-0.769734 -1.20086 16.1863 81 78 72
-1.49618 -1.43608 18.9424 126 106 97
0.156235 -1.09268 15.4907 164 144 106
4.62096 -1.09551 17.6414 105 89 68
4.43539 -1.05577 17.343 74 61 40
3.15075 -1.02719 15.6924 112 90 52
-18.0269 -2.315 28.6261 108 93 96
-0.650426 -1.08499 15.9725 110 105 91
0.153277 -1.02934 15.3771 150 132 96
4.52227 -1.03923 17.4282 96 70 44
-1.84348 -1.37265 19.7396 186 179 179
-0.549174 -1.04997 15.6664 141 132 104
-17.5346 -2.09972 26.7776 78 40 32
-1.89804 -1.42126 21.0369 180 176 178
-1.37488 -1.21151 18.1925 92 77 60
-1.26491 -1.16596 18.2633 42 28 23
3.21804 -0.952589 15.793 113 96 62
3.58421 -0.95496 15.7593 30 25 28
-2.01782 -1.44049 22.4147 180 176 174
-1.68451 -1.26795 18.6964 166 140 104
5.02205 -0.988337 17.7662 70 57 43
-19.2996 -2.2798 30.1275 88 58 43
-17.6643 -2.00689 26.8426 68 39 34
2.42492 -0.875045 14.9801 120 104 70
-19.1103 -2.21485 29.3442 112 88 56
-17.8888 -2.06584 27.7001 142 135 139
2.88237 -0.856426 15.2297 112 92 52
5.2716 -0.958791 18.5567 50 40 36
-17.9349 -2.04012 27.6473 117 106 107
-2.09089 -1.30997 21.027 172 162 130
4.12039 -0.884995 16.9169 88 75 38
5.10098 -0.907845 18.3106 52 39 28
-17.8241 -1.97872 27.2201 150 140 138
-1.73111 -1.12027 18.0251 148 140 109
-0.495206 -0.969255 16.4256 80 78 71
3.20537 -0.860591 16.0716 118 98 56
5.42017 -0.96317 18.5442 59 50 38
5.37221 -0.971014 18.4799 96 88 70
-17.4816 -1.87702 26.2261 126 112 100
-2.25064 -1.26119 20.8594 174 124 120
-1.7506 -1.24657 20.6839 153 140 106
4.93305 -0.89653 18.1525 90 70 36
5.99967 -0.888699 17.8239 132 127 118
3.97825 -0.849488 16.7085 96 77 37
-2.43299 -1.16047 20.5184 186 182 178
3.82641 -0.815486 16.3427 100 78 36
5.85612 -0.882528 19.1358 128 121 110
5.71986 -0.945904 18.0915 128 120 110
-0.732077 -0.895754 16.8736 14 8 9
2.00542 -0.753011 15.246 94 79 49
-1.70108 -1.08991 20.887 154 129 87
-1.41698 -1.06801 18.6925 154 141 102
-0.484922 -0.888292 16.3466 55 52 54
3.77292 -0.728552 16.2036 98 70 28
-18.9966 -1.8946 29.1969 135 126 126
-1.133 -0.928554 18.0149 52 46 33
-0.847546 -0.859717 16.6572 110 107 98
-0.428908 -0.795039 15.9519 20 16 10
-0.162537 -0.822972 16.0046 158 138 80
5.94177 -0.805446 19.0721 120 110 92
-1.61587 -1.0536 20.5145 140 116 76
-1.43893 -1.05662 20.4275 146 126 80
-0.369082 -0.786113 16.0212 141 134 110
1.24668 -0.712144 15.2595 129 84 55
3.26276 -0.695462 15.8628 106 84 38
5.93285 -0.754574 18.4118 132 126 114
-1.32482 -0.870866 18.0999 114 104 80
-1.05929 -0.88003 17.7538 30 21 16
-0.225585 -0.755342 16.1827 169 150 113
4.96186 -0.775436 18.9138 106 84 47
-1.03133 -0.836975 17.2087 42 36 26
5.50557 -0.80692 18.8707 118 96 74
-2.48777 -0.997532 20.1106 52 46 40
-0.951076 -0.832033 17.4092 26 20 13
5.22465 -0.781583 19.4022 102 78 42
6.12023 -0.681925 18.8606 136 127 114
-0.918835 -0.772223 17.1572 18 12 3
3.04614 -0.621976 15.5844 56 38 10
2.50773 -0.571554 15.507 116 104 68
3.04222 -0.618826 15.7794 72 54 20
-2.61431 -0.992107 20.9705 162 144 118
-1.75951 -0.981031 21.406 160 146 102
-0.982898 -0.76653 17.0292 48 39 29
-0.233371 -0.706103 16.785 146 120 82
5.4277 -0.739321 20.0365 111 92 56
6.1106 -0.670248 18.984 94 76 51
-1.22275 -0.794529 18.4114 92 80 64
-0.264551 -0.635636 15.6952 146 118 80
-1.50833 -0.965533 21.6645 157 144 104
-2.87329 -0.891549 20.483 186 185 178
-1.59698 -0.881328 21.3493 135 126 96
-1.56682 -0.876214 20.9084 132 121 83
-1.27627 -0.76262 18.3787 162 146 106
-1.21734 -0.739373 18.379 93 80 60
2.5718 -0.526273 15.6415 115 101 61
-1.75665 -0.857136 21.238 82 75 55
-0.365697 -0.582399 16.3808 124 116 89
-0.229768 -0.594173 16.0507 152 134 99
-1.81518 -0.853253 21.3514 62 55 41
-1.71432 -0.86947 20.811 113 108 86
-1.17003 -0.691196 17.9077 66 58 54
0.732276 -0.537548 15.5449 94 57 28
1.66948 -0.497203 15.3079 124 100 60
6.41385 -0.592036 19.875 114 82 54
-2.75241 -0.836919 19.947 144 98 81
-1.96015 -0.828622 20.9092 149 140 106
-1.55699 -0.837661 21.6335 118 106 82
-1.3728 -0.747627 18.8798 154 130 82
-1.13605 -0.675555 17.7803 70 66 52
-1.06778 -0.671921 17.8739 50 46 32
2.27903 -0.485185 15.5112 116 108 64
4.75539 -0.540335 18.0285 98 80 56
-1.00616 -0.644773 17.7716 36 30 16
-0.956487 -0.614825 17.652 40 32 26
4.66178 -0.534762 17.9123 94 76 50
-1.14683 -0.551893 17.7902 62 55 34
4.23258 -0.513301 17.6465 102 82 43
4.19241 -0.497787 17.3478 79 60 28
-2.46424 -0.752475 20.9016 145 126 83
-2.06619 -0.764223 21.1507 148 138 106
-1.98243 -0.786714 21.2395 146 138 110
-1.38206 -0.750895 20.4881 146 122 84
5.91603 -0.436092 18.39 116 90 59
-17.8566 -1.23874 25.1395 124 114 108
-2.77442 -0.725676 19.3632 110 92 70
-0.944607 -0.550402 17.1506 24 18 12
-0.482794 -0.512002 16.6021 10 7 6
4.22305 -0.40642 17.6937 82 64 28
4.22371 -0.445999 17.5071 73 54 23
6.16249 -0.543571 19.9881 90 82 53
-3.01439 -0.680066 19.5984 194 182 181
2.73225 -0.384357 15.6483 94 77 50
-1.45029 -0.68036 21.0597 98 94 74
-1.36772 -0.585355 19.6011 127 116 91
-2.0364 -0.6678 20.8821 138 136 114
-1.97686 -0.658967 20.8958 64 62 50
-1.8725 -0.648298 20.7905 99 88 66
-0.916047 -0.480726 17.0535 117 111 89
6.36747 -0.434937 19.6785 106 82 49
-0.843954 -0.452087 17.1529 15 8 4
2.59953 -0.317774 15.6516 116 100 62
2.77924 -0.338855 15.9952 74 58 36
6.27833 -0.378977 19.6447 112 94 58
-2.90601 -0.627305 19.9497 135 85 70
3.92165 -0.434198 17.0269 104 83 38
-1.922 -0.60772 20.8775 64 58 48
-1.18289 -0.526081 20.0024 122 114 86
-0.716311 -0.432926 16.9885 122 118 98
-2.04163 -0.541781 20.5596 106 105 92
-1.03913 -0.46664 18.2472 120 116 94
5.58373 -0.324216 18.6806 103 88 52
-2.98537 -0.557257 19.5106 160 114 104
-1.29222 -0.548111 20.9268 88 84 68
-0.967507 -0.437955 18.4584 126 120 94
2.56495 -0.278196 15.7176 106 94 64
2.69875 -0.285839 16.0404 58 46 31
-1.462 -0.565795 21.2544 70 63 47
-0.71185 -0.370577 17.1325 28 22 12
5.78792 -0.353061 19.9512 104 82 50
3.66574 -0.255876 16.7071 98 76 22
2.8068 -0.273932 16.1913 76 63 37
6.12959 -0.263233 19.3048 106 84 48
-2.71727 -0.465811 19.8841 137 120 88
-2.64622 -0.47387 19.9776 146 134 100
-1.58351 -0.442416 20.1655 128 124 111
-1.4403 -0.468947 20.7699 68 66 50
-0.748966 -0.338616 17.1321 54 44 29
-0.710134 -0.322742 17.0023 30 23 16
2.78228 -0.210161 15.6062 32 18 10
5.57418 -0.250002 19.2636 109 86 56
-3.05784 -0.433217 19.4212 137 136 140
0.961938 -0.213202 15.7762 110 106 77
-1.46688 -0.398536 20.6428 80 76 70
-1.40061 -0.422429 20.1752 98 94 74
1.04926 -0.200477 15.817 100 98 70
2.68818 -0.190442 15.968 20 13 2
2.68525 -0.181094 15.6161 96 83 41
6.176 -0.189741 19.1551 112 90 56
-2.62181 -0.369165 19.6464 145 134 100
-2.53864 -0.365986 19.7476 145 135 104
-2.91042 -0.351219 19.2368 113 103 90
-1.07343 -0.35352 20.565 136 131 117
-1.02377 -0.339031 20.241 97 93 84
-0.851012 -0.355527 18.7601 106 94 62
-2.27283 -0.333916 20.0701 118 104 84
-2.1999 -0.334922 20.0105 116 108 90
-1.21719 -0.357134 20.7824 155 145 116
1.65502 -0.135765 15.6576 67 60 44
-3.08514 -0.3143 19.1165 194 188 173
-2.678 -0.334362 19.7243 137 122 86
-2.08991 -0.334654 20.6028 66 61 52
-1.99347 -0.315568 20.2555 130 132 115
-2.91252 -0.253519 18.8876 100 89 72
-0.922727 -0.318305 20.1482 85 82 71
-2.60214 -0.307628 19.8924 145 133 101
-1.91412 -0.289175 20.3607 74 70 60
-1.82809 -0.280002 19.7695 138 133 108
-1.46752 -0.303177 20.5622 114 110 100
-1.32028 -0.290289 20.4741 134 127 103
-1.24731 -0.279897 20.4132 86 82 66
6.12244 -0.0928149 18.8335 108 94 58
-1.98819 -0.247662 20.3864 119 122 110
1.79152 -0.0765395 15.9206 104 94 75
3.15838 -0.0583494 16.3475 92 72 42
-2.90682 -0.244572 19.1083 146 130 106
-2.45931 -0.296438 19.5516 148 132 102
-0.904075 -0.252519 20.7335 63 58 52
-0.895677 -0.236106 20.1402 108 103 92
-0.803551 -0.217945 20.2432 98 95 78
-0.643953 -0.241296 19.8596 120 112 86
5.27848 -0.0781469 19.8271 110 92 58
5.17866 -0.0658544 18.8295 94 80 52
5.48364 -0.0851452 19.564 86 70 44
-3.07833 -0.192701 18.833 193 156 152
-2.33429 -0.232436 19.7195 106 97 82
-1.92889 -0.206808 20.1665 59 55 46
-1.25557 -0.223293 20.4572 128 125 114
0.00590739 -0.0635941 16.3814 118 94 56
3.58497 -0.0257633 17.2359 95 75 32
6.30452 0.0310542 17.961 51 43 44
0.298767 -0.0702741 16.1972 109 104 76
0.80231 -0.0554597 15.7595 134 115 72
1.92553 -0.0297723 15.9871 74 62 32
3.09207 -0.0233658 16.6394 86 74 42
3.7864 -0.0284856 17.6141 100 80 44
-2.85446 -0.208023 19.0262 149 131 107
0.251513 -0.0662717 16.2932 92 96 86
-2.5108 -0.205566 19.7979 140 124 93
-2.38827 -0.168101 19.6135 108 100 87
-3.06142 -0.13194 18.8197 206 190 181
-0.496311 -0.0134863 17.0901 80 70 40
3.62608 0.0830971 17.8202 90 65 30
6.02581 0.0900141 18.4174 118 108 76
-2.86703 -0.101086 18.8297 140 121 102
-2.09076 -0.108093 19.7984 132 126 109
-2.02955 -0.126885 20.0252 144 138 116
-0.28861 0.00630295 17.2573 30 20 10
2.78486 0.061366 16.3145 84 75 40
3.32144 0.0648023 17.5975 52 30 10
5.32205 0.0989128 18.3542 104 72 42
-1.98215 -0.103357 19.5836 76 70 56
-1.45717 -0.196615 20.3887 110 103 86
-1.01558 -0.123477 19.9188 110 104 91
-0.764982 -0.134088 20.2066 124 118 102
-2.047 -0.0538843 19.7565 80 73 61
0.224498 0.046365 16.5683 126 106 54
-3.023 -0.050299 18.5014 140 139 138
-1.90889 -0.027646 19.7921 142 138 122
-2.69694 0.00557881 18.6196 143 134 111
-2.65289 -0.0131369 18.6507 136 128 106
-1.97665 -0.0202757 19.7141 84 80 66
-1.06086 0.00601963 20.1454 92 88 84
0.0167181 0.0798341 16.5646 101 86 48
4.32887 0.137971 19.6521 100 76 48
0.105139 0.0879433 16.8031 98 78 44
4.89484 0.172513 19.288 102 78 47
3.4385 0.173284 17.3009 92 74 46
-2.77208 0.0445051 18.8323 142 134 110
-0.0565466 0.129767 16.6732 36 30 10
0.0623147 0.157482 16.8455 106 95 60
1.12653 0.158922 16.5634 114 90 49
5.95707 0.230632 17.8109 98 82 62
6.04972 0.247077 17.9127 114 102 76
-1.09872 0.0986989 19.8636 118 116 107
-0.33962 0.136407 17.3575 70 60 38
0.0766212 0.148662 16.556 96 79 46
1.7078 0.195714 16.0642 88 73 45
4.70633 0.227926 18.5764 112 89 57
-1.06855 0.132455 19.3212 124 122 106
-0.346077 0.0914765 19.225 110 102 80
0.234145 0.135853 16.4076 115 90 48
1.56688 0.204005 15.8574 114 96 54
1.7902 0.209945 16.2182 41 27 14
-2.76771 0.0946631 18.4021 140 128 109
-2.71215 0.0921898 18.4532 143 132 110
1.43952 0.216191 16.2012 52 42 28
-0.692981 0.157533 19.4838 154 145 118
3.92172 0.258586 18.9042 80 68 47
4.20068 0.321588 18.742 92 82 54
4.42562 0.289866 19.0458 90 78 50
5.87215 0.315884 17.5723 118 104 85
-0.392363 0.195458 19.5638 161 156 131
-1.91755 0.174098 18.9295 122 106 98
-1.11079 0.203963 19.4969 88 85 72
-0.156084 0.268561 17.2002 94 85 70
2.2931 0.285317 16.3731 112 96 49
2.34933 0.283212 16.3814 64 48 14
2.43884 0.282641 16.5545 94 76 26
-2.89896 0.119338 18.8853 162 124 118
-1.4844 0.188556 19.4458 68 60 54
-0.943168 0.197375 19.1558 110 105 91
-0.662756 0.211652 19.4148 140 126 109
-0.334938 0.217628 17.412 96 90 66
-0.196065 0.286789 17.4891 80 70 52
2.13164 0.298389 16.311 112 96 52
2.76152 0.300813 16.8162 114 84 20
3.48087 0.334473 18.4782 72 50 28
5.50902 0.345805 18.3796 70 58 42
5.98288 0.375824 17.1781 54 49 50
-1.88442 0.19283 18.2588 138 129 120
-0.893066 0.21171 19.0459 128 124 110
-0.751567 0.222883 19.6762 122 118 100
-0.39862 0.237096 19.5011 90 86 73
1.99311 0.297125 16.2869 86 64 22
3.28025 0.323343 17.8631 66 44 16
5.84029 0.398335 17.782 106 94 70
5.78412 0.374563 17.4251 73 59 35
-2.56799 0.206749 18.4307 112 101 85
-1.93822 0.22873 18.8556 139 131 121
-0.373938 0.294231 19.0872 111 106 88
-0.145977 0.307402 17.4761 58 51 38
-0.053333 0.332386 17.2633 76 74 60
3.04595 0.318482 17.1234 70 52 14
5.79221 0.415013 17.1016 132 119 84
-2.90838 0.26643 18.1957 202 190 184
-1.42015 0.253331 19.1444 84 76 66
-0.658269 0.267429 19.9776 105 102 88
0.103226 0.305779 16.9095 58 55 42
0.178907 0.333167 16.9572 76 74 54
1.62419 0.339477 16.7772 70 52 15
1.66942 0.343746 16.2077 82 60 30
1.77234 0.348567 16.3823 78 58 27
1.82895 0.33386 16.3409 112 95 50
-2.11075 0.25016 18.9141 118 106 93
-1.04341 0.289399 19.1556 77 70 52
1.42212 0.359031 16.1986 100 74 29
4.75675 0.392842 18.2031 82 66 50
5.77126 0.453321 17.6193 77 64 40
5.81058 0.477236 16.9976 128 95 76
-2.08958 0.287073 19.0205 114 104 92
-0.0902446 0.338238 18.7403 153 149 128
3.0748 0.388153 17.6754 52 30 7
4.58405 0.41429 18.3993 99 80 62
-2.54795 0.260947 18.5463 118 108 84
-2.01995 0.293884 18.9811 94 84 74
-1.78086 0.289843 19.2235 70 64 50
-1.1683 0.324431 19.0513 112 108 94
